354.118449125,354.15008475,354.1781360625,354.2021766875,354.2203526875,354.2226514375,354.2218705625,354.21772575,354.2212704375,354.22686431249997,354.24002975,354.254157,354.2605033125,354.2793463125,354.2923863125,354.3076024375,354.32425143750004,354.33554406250005,354.3305315,354.2906045625,354.26017112500006,354.218185125,354.187109125,354.1995255625,354.2005771875,354.2076876875,354.20621431250004,354.2057556875,354.2039691875,354.21301825,354.235988,354.24474250000003,354.2532118125,354.265640625,354.273871375,354.26062106250004,354.2477456875,354.2492600625,354.271357125,354.270725875,354.27171456249994,354.26195699999994,354.21177743749996,354.20743368750004,354.2166035,354.19193731250004,354.184511125,354.2009711875,354.1875501875,354.190951625,354.19769468749996,354.1629603125,354.1570798125,354.1425224375,354.1378785625,354.13604887500003,354.11826175,354.1096715625,354.095887875,354.0827801875,354.06627606250004,354.0630175625,354.03680287500003,354.03767050000005,354.0294050625,354.0092186875,354.07074493749997,354.1154919375,354.16735268749994,354.21672087499996,354.20162062500003,354.1830856875,354.1767534375,354.1645813125,354.14565875,354.132927625,354.110591875,354.0973646875,354.0884843125,354.0771780625,354.0688791875,354.057133125,354.0433643125,354.0342550625,354.020218625,354.011148125,354.0022070625,353.993427875,353.98310643750006,353.96928675000004,353.96076750000003,353.9504286875,353.946775625,353.9448934375,353.94153637499994,353.93335125,353.92282112500004,353.9105525625,353.898951,353.89376849999996,353.88968450000004,353.88172168750003,353.8706023125,353.852517375,353.83516975,353.8218125625,353.8099876875,353.79856606249996,353.787074625,353.771275125,353.7546455625,353.74766931249997,353.738038,353.7308918125,353.72834800000004,353.71907600000003,353.71633525000004,353.7184995625,353.71422474999997,353.7028131875,353.68762274999995,353.668177375,353.6624730625,353.66715493749996,353.661256375,353.643353,353.6165488125,353.593022,353.5885513125,353.60395268749994,353.609474375,353.609248125,353.606947125,353.589169875,353.59047687500004,353.5894883125,353.58231381250005,353.585414125,353.580261875,353.5767975,353.5706565625,353.5555805,353.53978037499996,353.53004618750003,353.51945524999996,353.5162110625,353.5144361875,353.5084240625,353.5058315625,353.50418075000005,353.4954981875,353.4860891875,353.47296075,353.464117375,353.4576806875,353.45486725,353.4603939375,353.4691280625,353.4829444375,353.4942106875,353.50410074999996,353.50529812499997,353.5035316875,353.5011333125,353.4994951875,353.5024360625,353.507150625,353.50885,353.50141225000004,353.490300125,353.4794851875,353.4712621875,353.4712204375,353.471588625,353.4688385,353.465563625,353.4597779375,353.45243643749995,353.447086625,353.44342374999997,353.4435935,353.4416715625,353.42569225,353.4173075,353.4030361875,353.3940289375,353.3970598125,353.390583,353.385705875,353.3757716875,353.3634379375,353.3482748125,353.3351509375
354.1022156875,354.13403668750004,354.16288000000003,354.19009062500004,354.2096596875,354.219089125,354.22481525,354.21849618749997,354.2297625625,354.23548343749997,354.24796449999997,354.2698363125,354.2768211875,354.2959109375,354.304852,354.31668793750003,354.3289825,354.332638,354.32275418750004,354.2885339375,354.26430025,354.2440566875,354.2219253125,354.242317875,354.24171450000006,354.239368,354.2450134375,354.24005918750004,354.245517125,354.25643812500005,354.27579675000004,354.28116181250005,354.28593531250004,354.28497300000004,354.29188825000006,354.2768675,354.26195700000005,354.27497100000005,354.3274866875,354.345040625,354.37627693749994,354.36302787499994,354.28334337499996,354.261014,354.2383118125,354.21198449999997,354.19957887500004,354.2009485625,354.185676125,354.1747743125,354.1708948125,354.1528625625,354.16167568749995,354.16297925,354.1708533125,354.1655838125,354.1454628125,354.13328043750005,354.1197359375,354.10480468749995,354.0757735625,354.062612625,354.037473,354.027261875,354.0224363125,354.015498375,354.075772375,354.133269375,354.18294193749995,354.2309164375,354.2148205625,354.1972529375,354.190049875,354.17761968749994,354.15970875000005,354.1465226875,354.123564625,354.11092256250004,354.1021144375,354.0917913125,354.08330375,354.07172725,354.0594014375,354.048661625,354.03501612499997,354.0260379375,354.01842831249996,354.010306125,354.0017804375,353.987936625,353.976859375,353.96583181249997,353.962577375,353.9607823125,353.9558226875,353.94881418750003,353.93606412500003,353.9229463125,353.91369825000004,353.9074951875,353.9038480625,353.8971529375,353.8854054375,353.8682941875,353.85179143749997,353.83699406249997,353.824738125,353.813608,353.8016558125,353.7866576875,353.7698035625,353.7604339375,353.7515965625,353.74527793749996,353.743029125,353.736446125,353.73230456249996,353.732572375,353.73003274999996,353.72130131250003,353.7068480625,353.6889421875,353.68067199999996,353.680742375,353.67956775000005,353.6689335625,353.640147875,353.61562912499994,353.6050493125,353.61121349999996,353.6223740625,353.6252648125,353.62212912499996,353.6048111875,353.602808625,353.6020809375,353.59857525,353.601927,353.5956036875,353.590208125,353.5828721875,353.5683033125,353.5521853125,353.5423615,353.534423375,353.53057975,353.52780325000003,353.52199862500004,353.51708231249995,353.5147069375,353.5091148125,353.49929587500003,353.483657125,353.473673125,353.4651643125,353.4607694375,353.465112375,353.472851625,353.48570693749997,353.49654787500003,353.5070105,353.510798125,353.5086376875,353.5064591875,353.50554618750004,353.505905125,353.5118058125,353.5162544375,353.5106878125,353.502342875,353.49158381250004,353.48072225,353.47766237499997,353.47766912500003,353.4763646875,353.4756874375,353.47221187499997,353.465622125,353.45892606250004,353.4529608125,353.45283062500005,353.452694875,353.440256,353.4347089375,353.4202849375,353.40817187500005,353.40797493750006,353.3990490625,353.3942618125,353.3859869375,353.376355875,353.36234693750004,353.346723375
354.085877875,354.11422525,354.14443906250006,354.171811375,354.1952399375,354.20822212499996,354.21356275,354.216703625,354.226121625,354.2315486875,354.24902018750004,354.2691221875,354.2839965,354.3121410625,354.321720875,354.33388506250003,354.3360268125,354.332738125,354.32438743750004,354.29181262500003,354.2962211875,354.2788210625,354.257650625,354.2660766875,354.238885,354.23551031249997,354.248246,354.2621818125,354.2789096875,354.29663925,354.31048225,354.310601125,354.3117171875,354.30893825,354.312327875,354.297315125,354.28419975,354.30062668749997,354.382195875,354.4257064375,354.483569375,354.451261875,354.345895875,354.29587225,354.2430200625,354.228718125,354.21298750000005,354.21434350000004,354.200758125,354.195137,354.2055248125,354.1872125625,354.1961429375,354.20513693749996,354.196961375,354.1901923125,354.1666503125,354.1562595625,354.13154756250003,354.1163489375,354.0921749375,354.067544875,354.0566266875,354.0499876875,354.043616875,354.0366625625,354.0944545,354.1487055,354.1970810625,354.24383643749997,354.22767093749997,354.2109934375,354.2036875,354.1903699375,354.1736548125,354.16047987499996,354.13864143750004,354.1278308125,354.118251875,354.1071654375,354.09676612500004,354.083217375,354.0721196875,354.0616225625,354.05044075,354.042977125,354.0364660625,354.02855275,354.0208146875,354.006933125,353.9938170625,353.9824584375,353.9784504375,353.975504625,353.9703663125,353.96388,353.9490664375,353.93616393750005,353.92811506249996,353.9202628125,353.91730531250005,353.9118706875,353.90045200000003,353.88675,353.8707380625,353.8557865625,353.842519625,353.830082625,353.817042375,353.801780875,353.784247125,353.77136056250004,353.76367537500005,353.75913093749995,353.75805856249997,353.75532356249994,353.7498145625,353.74712375,353.7456065,353.73887137500003,353.728385375,353.7136143125,353.70215356250003,353.698073875,353.696008625,353.6873505625,353.6641695625,353.6393386875,353.6252384375,353.62495875,353.635094,353.640734875,353.6386825625,353.6216554375,353.6180709375,353.6178741875,353.616872625,353.6217435625,353.61419006250003,353.6043541875,353.59548568749995,353.58214231249997,353.56409181249995,353.553920875,353.546193625,353.542694625,353.5377353125,353.5329335,353.52515543749996,353.5189139375,353.51812699999994,353.5112761875,353.4961553125,353.48722250000003,353.475953125,353.467492625,353.470920125,353.47639975,353.48831568749995,353.49878981250004,353.5078595,353.51476925000003,353.51422206250004,353.51258431250005,353.512442125,353.50997175,353.5140661875,353.51901131249997,353.516471625,353.50972612500004,353.4996865625,353.4887405625,353.48252581249994,353.4823808125,353.482669625,353.483472,353.4830581875,353.4775265625,353.47094375,353.46349331249996,353.4602309375,353.46105462500003,353.4496793125,353.4476826875,353.436612625,353.42344087500004,353.421602375,353.409486625,353.402795,353.39558424999996,353.3874409375,353.37559225,353.358528375
354.0716326875,354.098744625,354.1242964375,354.15285125,354.1776475625,354.198354125,354.210957875,354.22130031250003,354.23193975000004,354.23755193750003,354.2583803125,354.2742056875,354.28762337499995,354.3164116875,354.3254208125,354.33984462499996,354.34073856249995,354.328179375,354.3268324375,354.2948406875,354.322793,354.3331143125,354.3098200625,354.3272916875,354.29046306249995,354.2774099375,354.292098875,354.29706575,354.3106276875,354.3192085,354.32923037499995,354.330599125,354.333413125,354.3327371875,354.336176875,354.323223125,354.30816368750004,354.32597362499996,354.37565743749997,354.4424519375,354.525304,354.4913548125,354.4178970625,354.34282643750004,354.25968475,354.2434001875,354.2259844375,354.2269974375,354.2166085,354.21454175,354.2264665,354.210437,354.2071948125,354.21463812499996,354.205158875,354.20541981250005,354.19060512500005,354.17852949999997,354.15509031249996,354.13423343750003,354.1153244375,354.106591125,354.10757325,354.111603125,354.1035495625,354.0819883125,354.12491224999997,354.16354824999996,354.22708062500004,354.27212225,354.255613875,354.2387201875,354.21395393750004,354.2011548125,354.18656125,354.1738955625,354.1540891875,354.14260924999996,354.1330293125,354.12074774999996,354.10861224999996,354.0961113125,354.085429125,354.0752515625,354.066380875,354.05908456249995,354.053547125,354.046884125,354.040229875,354.0263609375,354.01214025,353.99974568749997,353.99355199999997,353.9897233125,353.9837759375,353.9775634375,353.96213012500004,353.94921975,353.9414404375,353.932403625,353.92805856250004,353.9217399375,353.91130993750005,353.8976035,353.883028125,353.869086375,353.8551490625,353.84505,353.8308378125,353.81565475,353.79798262500003,353.7820726875,353.77664100000004,353.77432493749996,353.774663875,353.77537699999993,353.768013375,353.761187875,353.75744656250004,353.750360125,353.7429351875,353.73286025000004,353.7203864375,353.7145581875,353.7112081875,353.7044181875,353.68791699999997,353.66559681250004,353.6507893125,353.64387,353.64979812499996,353.655317625,353.65397806249996,353.651430375,353.6477948125,353.646644375,353.6469684375,353.640174,353.63136162499995,353.61930168749996,353.6067065625,353.59519624999996,353.5800100625,353.5699453125,353.5644284375,353.5602591875,353.5540835,353.55126925,353.533429125,353.523777,353.52114393749997,353.513154,353.50707024999997,353.49809075,353.48670075,353.475525375,353.4764301875,353.48059562500003,353.48981349999997,353.5007338125,353.5090785625,353.5178954375,353.52062256249997,353.5198088125,353.52067143749997,353.516521125,353.51713500000005,353.52162018750005,353.52184218750006,353.51822106250006,353.5103801875,353.49866675,353.49016225,353.487190375,353.48779675000003,353.4906504375,353.491961,353.4895044375,353.483860875,353.4762024375,353.4695994375,353.46816343750004,353.4551868125,353.455221375,353.449730875,353.4375008125,353.4368763125,353.42247556250004,353.4121843125,353.40535275,353.3881540625,353.379317,353.36417837500005
354.06013225000004,354.0831325625,354.1077685,354.133188,354.16039056249997,354.1825503125,354.19523475000005,354.20895275,354.2214025,354.2377736875,354.2654498125,354.283656125,354.29957924999997,354.3195561875,354.326302375,354.343614375,354.3468495625,354.3327794375,354.341711875,354.3082665,354.32176943749994,354.339966125,354.3148133125,354.339144625,354.32606025,354.3199988125,354.335179625,354.3409841875,354.347710625,354.3510133125,354.3570241875,354.3577640625,354.3570325625,354.3530035,354.34360168750004,354.32910843750005,354.31578212499994,354.3074345,354.3798531875,354.4682206875,354.578205875,354.5719925625,354.4887430625,354.38818875000004,354.2608585625,354.244755,354.2273025625,354.214510625,354.2066704375,354.2061490625,354.2314820625,354.23132425,354.2405884375,354.2429419375,354.2050254375,354.2034625625,354.18896375,354.178663875,354.17157625000004,354.1539855625,354.1379816875,354.13056325,354.13155006249997,354.133610125,354.1239751875,354.10070125,354.124293375,354.16171331249996,354.226234625,354.27112056249996,354.269337875,354.251362125,354.22228431250005,354.211747875,354.200358375,354.1889891875,354.1724224375,354.1602405,354.1493074375,354.13629575000004,354.124026625,354.11111500000004,354.1018238125,354.0914648125,354.08360575000006,354.076418375,354.0704891875,354.06519049999997,354.057233625,354.043200875,354.027511625,354.0147338125,354.00816499999996,354.0037198125,353.996937125,353.9899861875,353.97380875,353.9611100625,353.955128875,353.9459448125,353.9406023125,353.93415881249996,353.9235269375,353.91049468750003,353.8970338125,353.8836343125,353.869308375,353.859209375,353.8461295625,353.83173362499997,353.81368775,353.7966889375,353.78844818749997,353.78538518749997,353.786812125,353.78802018749997,353.7827414375,353.7745464375,353.7692555625,353.76078606249996,353.755420375,353.748976125,353.73631475,353.7313835625,353.7245558125,353.71928687499997,353.710525625,353.6919903125,353.6787343125,353.664865,353.6623180625,353.6676595,353.668727625,353.66946943749997,353.66711075,353.66348243749997,353.660799375,353.6545868125,353.647273625,353.63361125,353.6206139375,353.611934,353.59684275,353.58497275,353.57894987500003,353.5732525625,353.568485,353.5687491875,353.55108237499996,353.5378766875,353.5307388125,353.5226420625,353.52427581250004,353.5159948125,353.50531225,353.4923026875,353.4829208125,353.48504893750004,353.4917599375,353.50250843749996,353.51123025,353.5196206875,353.526025125,353.52559475,353.5264534375,353.5225214375,353.51960093750006,353.52283475,353.5259361875,353.525138,353.5206045625,353.5101694375,353.5004413125,353.4956405,353.4951725625,353.498281875,353.5001566875,353.49998274999996,353.495565875,353.4890083125,353.48143468750004,353.478123375,353.47652806250005,353.47544125,353.4723090625,353.463115375,353.4508924375,353.43625075,353.424761375,353.4151084375,353.397885125,353.3905511875,353.377518875
354.0399576875,354.06422225,354.0879043125,354.1122524375,354.1522664375,354.175197625,354.19005481249997,354.210256,354.22221275,354.2404415625,354.26929606249996,354.276052375,354.29236075,354.3143963125,354.32311806250004,354.34313475,354.34028075000003,354.3261945,354.3354885,354.3131433125,354.33697199999995,354.35939793750003,354.3525350625,354.37488993750003,354.36571637500003,354.36297475000003,354.367053875,354.376623,354.37559699999997,354.37490225,354.3793446875,354.386411,354.3855960625,354.38961606250007,354.39450775,354.37159393750005,354.36014418749994,354.341815875,354.3689096875,354.4651070625,354.568526125,354.587822,354.56046068750004,354.4518411875,354.330897875,354.2913360625,354.2487914375,354.2377654375,354.231860375,354.23143843749995,354.25506237499997,354.25135931249997,354.2445089375,354.2434293125,354.20387025,354.2004395625,354.1861884375,354.18085475,354.176702375,354.1659615,354.16532337500007,354.1559723125,354.1557134375,354.15287012500005,354.15037075,354.12528925000004,354.146217375,354.1830259375,354.2381129375,354.282504375,354.28095125000004,354.263159625,354.2322528125,354.22317075,354.213924875,354.20311575,354.18913787500003,354.1766674375,354.1645759375,354.1511015625,354.13830693750003,354.12667012500003,354.117589875,354.10915475,354.10309725,354.09495749999996,354.08804024999995,354.0822334375,354.0725299375,354.058789,354.0438983125,354.029759625,354.02094681250003,354.01654456250003,354.010125625,354.0022741875,353.987309,353.9745258125,353.967895125,353.95972174999997,353.95432537499994,353.94706425,353.93650712500005,353.92481956250003,353.91182956250003,353.8998953125,353.88584106250005,353.8747923125,353.86212850000004,353.84723131249996,353.828609375,353.81103668749995,353.8002929375,353.79557256249996,353.79844587499997,353.8005776875,353.7965373125,353.78936856250004,353.7824111875,353.77212156250005,353.76875693750003,353.76419375,353.7529149375,353.7474058125,353.7377255625,353.7287188125,353.72550681250004,353.712903625,353.699856625,353.6863018125,353.6747634375,353.6769548125,353.6815345625,353.68539625,353.68545106249996,353.6825119375,353.6772396875,353.6702624375,353.66436325,353.6478438125,353.63573325000004,353.6282804375,353.615430875,353.60456450000004,353.597884125,353.59135756250004,353.584896875,353.5843044375,353.56527193750003,353.55019106249995,353.53900975,353.53221025,353.5359663125,353.52917037500004,353.5194580625,353.50430531250004,353.4922283125,353.4904359375,353.495740625,353.50564087500004,353.51340174999996,353.521184375,353.53057724999996,353.53249137499995,353.5328591875,353.5296945625,353.52346493749997,353.52431525,353.52795849999995,353.528651125,353.5270258125,353.51601881249996,353.50747581250005,353.5019745625,353.4990674375,353.50400343750005,353.50606437500005,353.50669875,353.5051799375,353.49864025,353.4908651875,353.48684112499996,353.4830206875,353.483220625,353.482306625,353.47563137500003,353.4644950625,353.450035875,353.436535125,353.4255535625,353.4077601875,353.4003985,353.39054775
354.02382868750004,354.0483293125,354.0719075625,354.1041685,354.14257393749995,354.16657699999996,354.190284625,354.203792,354.21754793749994,354.2439075625,354.266812,354.2678053125,354.284082625,354.2991888125,354.306710125,354.3303233125,354.33254487500005,354.3172578125,354.324015125,354.3158673125,354.334876125,354.37513275000003,354.38657731250004,354.4129395,354.417151,354.40528293750003,354.401705625,354.4020619375,354.401773,354.40339806249995,354.4080086875,354.41470218750004,354.406604625,354.40329693750004,354.416326625,354.3934180625,354.3835110625,354.3688215,354.3616068125,354.4334514375,354.5301639375,354.571958875,354.59494075000003,354.538614625,354.4243990625,354.37754831250004,354.31195281249995,354.28791812500003,354.2835075,354.2794113125,354.2885383125,354.2698953125,354.2581315625,354.230758875,354.202356375,354.19904062499995,354.1880560625,354.18582875000004,354.1867699375,354.17765556250004,354.1770935,354.17920475,354.175612375,354.1691665625,354.17672643749995,354.1498463125,354.16948737499996,354.2084138125,354.2528424375,354.2986424375,354.2970829375,354.279398125,354.24557937500003,354.2365115,354.228658875,354.2170545,354.2051405,354.19060487499996,354.17618243749996,354.16341793749996,354.15077599999995,354.141428375,354.133466,354.12620200000003,354.12042475,354.111303875,354.10347887499995,354.09706193750003,354.0875965,354.07403631249997,354.06027931250003,354.04447481249997,354.033421875,354.0292173125,354.02174181249995,354.01346524999997,353.99947099999997,353.9857813125,353.979711875,353.9739095,353.967892375,353.959848625,353.9482445625,353.935162375,353.92450125000005,353.9331729375,353.91033775000005,353.89957581249996,353.88677375,353.85262931249997,353.84618875,353.829052,353.8150920625,353.809121625,353.8096364375,353.81141149999996,353.80957225,353.80321281249996,353.79350562499997,353.7828299375,353.7763750625,353.77188412500004,353.7644839375,353.75781800000004,353.750592875,353.73979118750003,353.73580568750003,353.7284931875,353.7166008125,353.7045095625,353.6906323125,353.6888751875,353.69353325000003,353.7004675,353.71796537500006,353.71620593750004,353.70968174999996,353.70070418750004,353.6794283125,353.66476843749996,353.65282843750003,353.645655875,353.636775125,353.6249305,353.61834393749996,353.61005700000004,353.60270575,353.6007278125,353.581299875,353.56687562499997,353.550185375,353.541352125,353.545700125,353.532614,353.52415325,353.510808375,353.49704906249997,353.4984713125,353.5021824375,353.5087035,353.51591687499996,353.523345375,353.53221099999996,353.53673718749997,353.5369775625,353.5345698125,353.52904743749997,353.5271754375,353.5306586875,353.53419475,353.53516712500004,353.5266505625,353.5188146875,353.51149856250004,353.5059950625,353.509506,353.5114753125,353.51274818750005,353.5132519375,353.5079944375,353.5015639375,353.49646806249996,353.49212256249996,353.4912884375,353.4900615,353.485391125,353.4761234375,353.463764625,353.45070625,353.4386844375,353.4187035625,353.410707,353.40224375
354.00304331250004,354.0340841875,354.0576474375,354.0901484375,354.12846175,354.1537751875,354.178699375,354.1931790625,354.21374625,354.2398193125,354.26363875000004,354.26793187500004,354.2835040625,354.3026439375,354.30999493750005,354.33228618749996,354.3316568125,354.316206125,354.3218240625,354.3270379375,354.3438060625,354.3770390625,354.403230875,354.42353856249997,354.4360781875,354.43411825,354.431234125,354.434975375,354.4354828125,354.44410543749996,354.43914206249997,354.4508444375,354.437378125,354.4256611875,354.44009006249996,354.40764175,354.40151625,354.38897556250004,354.4012933125,354.4660663125,354.5561990625,354.6210026875,354.64797775,354.6223491875,354.5164943125,354.4499085625,354.3628531875,354.317226375,354.31122306249995,354.3160055,354.3217633125,354.2978340625,354.28241975000003,354.25167412499997,354.2362616875,354.224008,354.2197773125,354.21184162500003,354.21041775,354.211715,354.2076558125,354.193318125,354.166890875,354.161674125,354.1674135625,354.150389875,354.16542912499995,354.2034986875,354.231559875,354.2808021875,354.2954149375,354.2778143125,354.25935937500003,354.2488605625,354.242844,354.23046962499996,354.21927112500003,354.20434812499997,354.18901074999997,354.1781699375,354.16663106249996,354.1566708125,354.1485225,354.140550625,354.1348145625,354.1280663125,354.120609875,354.113379125,354.10410187499997,354.0897549375,354.07398725,354.05837175,354.046216,354.041921625,354.0357601875,354.02729750000003,354.01368125,353.99881306250006,353.99284681250003,353.986046625,353.9799584375,353.97165056250003,353.9582366875,353.94672912500005,353.93673493750003,353.94616825,353.9250990625,353.9131619375,353.90184931249996,353.8699236875,353.86593968750003,353.852121125,353.83536443750006,353.82637350000005,353.82455575,353.823858125,353.822931875,353.81762481249996,353.8064519375,353.79509875,353.7866433125,353.780830125,353.77542037499995,353.76759150000004,353.7613349375,353.74897575,353.7428183125,353.739334625,353.72907693749994,353.7216830625,353.71036574999994,353.70649956249997,353.71096112500004,353.71671849999996,353.7489418125,353.748080375,353.7391965,353.7293355,353.691905125,353.67806637499996,353.668626875,353.6615824375,353.65532199999996,353.6437750625,353.636436,353.6278171875,353.616709125,353.611909125,353.600353375,353.5854700625,353.5692424375,353.5597955,353.5566305625,353.545786625,353.53861106249997,353.527591875,353.5128296875,353.50949049999997,353.510089125,353.51282275,353.518556125,353.5256590625,353.533177875,353.539699875,353.54104975,353.5392739375,353.53491925,353.5312083125,353.532464125,353.536016625,353.53936818750003,353.53411531250003,353.5267506875,353.51946418750003,353.5118941875,353.5121780625,353.51486218749994,353.5165820625,353.51880037499996,353.51591562500005,353.50992368749996,353.50495924999996,353.50060824999997,353.498145375,353.4967426875,353.493793875,353.48581343750004,353.476352,353.46456750000004,353.451152125,353.44025987500004,353.43058406250003,353.42176568750006
353.98060906250004,354.01859043750005,354.0419394375,354.0757191875,354.11413212499997,354.139237875,354.16548424999996,354.1904806875,354.21127893749997,354.23398218750003,354.25715025,354.2471535625,354.266224125,354.28932050000003,354.30083918750006,354.329029625,354.3234644375,354.313472875,354.31954774999997,354.33873743749996,354.3731560625,354.414019625,354.446311625,354.463648,354.46787875,354.4601955,354.4544998125,354.45916124999997,354.4648746875,354.47125556249995,354.46265825,354.4729089375,354.4634270625,354.46407074999996,354.48060931249995,354.45940031249995,354.46029868749997,354.45279775,354.45962925000003,354.50451275,354.571727375,354.64137274999996,354.695621125,354.6985005625,354.6024881875,354.515214125,354.41979887499997,354.3510804375,354.341658875,354.3565744375,354.3352888125,354.307751,354.29069312499996,354.24823375,354.2477824375,354.2404855625,354.2409869375,354.23453600000005,354.2331031875,354.2311973125,354.2224065625,354.2066995,354.17689118749996,354.18409631249995,354.1897079375,354.18515725,354.215276625,354.2410753125,354.2692696875,354.3209666875,354.32350456250003,354.3048339375,354.2871883125,354.26196518750004,354.255141375,354.243141,354.2322684375,354.2156296875,354.200520125,354.19086925,354.179304375,354.1703343125,354.1610135625,354.153212875,354.14848006249997,354.143993625,354.1385215625,354.13020981249997,354.1210195,354.10584300000005,354.08849100000003,354.0731895,354.059063625,354.05379325,354.0487865,354.039889625,354.028662,354.0137078125,354.006718875,354.000203375,353.9934895,353.98404481250003,353.968649875,353.956558,353.9463614375,353.97477312499996,353.9559154375,353.94503993750004,353.93291256250006,353.884701625,353.88333481250004,353.8716409375,353.8555546875,353.84537475,353.83980862500005,353.835652375,353.8352959375,353.830153875,353.818543375,353.8078848125,353.7974738125,353.7898348125,353.7863370625,353.77721831250005,353.7711825,353.75875825,353.7500921875,353.749535875,353.74121974999997,353.73871225,353.73131387499996,353.72571925,353.7306085,353.73375918749997,353.76607312499993,353.76599124999996,353.758067125,353.74803131249996,353.7076853125,353.69526531249994,353.685145875,353.67577325,353.6725933125,353.66372675,353.65584787499995,353.6483229375,353.6348590625,353.6242950625,353.612574125,353.59843625,353.5837406875,353.5727776875,353.56778662499994,353.55748825,353.549974375,353.5417416875,353.523147875,353.5173505,353.51395287500003,353.5134974375,353.52153625,353.52760456249996,353.5344041875,353.542417625,353.54557575,353.5440270625,353.5403508125,353.535427375,353.5346350625,353.53817837500003,353.54237862499997,353.5395589375,353.53314650000004,353.5257060625,353.517731625,353.515739875,353.516809125,353.5189235,353.52158281249996,353.520349875,353.5071670625,353.5031935625,353.498856125,353.4970128125,353.5046784375,353.500979625,353.4947061875,353.48722,353.4764040625,353.46441300000004,353.4471010625,353.436118125,353.4266138125
353.97769668750004,354.0129968125,354.0362151875,354.0699345625,354.0954576875,354.118791625,354.144099875,354.1716390625,354.193890375,354.21713281250004,354.241266625,354.2392026875,354.2690225625,354.29574506250003,354.310956125,354.33670506249996,354.3382284375,354.332930375,354.345013375,354.36767275,354.39753275,354.430862375,354.4513683125,354.463350625,354.46506718750004,354.4639775,354.468042,354.4742479375,354.479020625,354.48162449999995,354.474840125,354.47496687499995,354.475650125,354.47934731249995,354.47392218749997,354.47656206249997,354.482186125,354.4913586875,354.5335195,354.5478985,354.59707875000004,354.64675218749994,354.67887874999997,354.72354499999994,354.65700918749997,354.57485275,354.4861586875,354.3925180625,354.35659581249996,354.36984375,354.34519356249996,354.3160845,354.29860049999996,354.2577353125,354.26221625,354.2694368125,354.27557525,354.2692485,354.2645458125,354.248168625,354.2361475625,354.21714099999997,354.1853265,354.1937016875,354.1869325,354.184060875,354.21409275,354.240923625,354.27988062500003,354.33366893749997,354.3388865625,354.31890431249997,354.30115975,354.27411500000005,354.2669436875,354.25561906250005,354.2454434375,354.22800912499997,354.21348281250005,354.204259625,354.19365637500005,354.1852665,354.17453981250003,354.166232875,354.16206143750003,354.1595949375,354.15471987499996,354.145918125,354.13577425000005,354.1193363125,354.10163481250004,354.0880981875,354.0737958125,354.0675828125,354.062973125,354.05278949999996,354.0426845625,354.0276443125,354.01926275,354.0131751875,354.0060181875,353.9959084375,353.9795866875,353.96597131249996,353.955363375,353.9847383125,353.9683095,353.95727450000004,353.94452418750006,353.8967993125,353.89841475000003,353.89027550000003,353.876366125,353.867222125,353.8581583125,353.8509209375,353.85055443749997,353.842613625,353.8305090625,353.8202868125,353.807890125,353.80068525,353.7970431875,353.78882987500003,353.7825375625,353.7689939375,353.75900375000003,353.75770518750005,353.7530011875,353.7544950625,353.75243218749995,353.74800056249995,353.7510125,353.7534055625,353.7847790625,353.7967538125,353.78976924999995,353.7910966875,353.747971,353.724441875,353.713345375,353.6903250625,353.68647487500004,353.67690625,353.66786599999995,353.6603276875,353.64773825,353.635968125,353.6246655,353.61183400000004,353.5967985,353.58294037499996,353.575130125,353.563723375,353.5587300625,353.55416,353.5383233125,353.5309541875,353.5220303125,353.51817531250003,353.5236189375,353.52975175,353.536562125,353.5437834375,353.5489843125,353.547906375,353.5456283125,353.540939375,353.53777725,353.54053575,353.5447335,353.546544875,353.54250525,353.53013831249996,353.521625625,353.51538800000003,353.51396931249997,353.521411125,353.524411375,353.5262955,353.5154146875,353.51127018750003,353.507344875,353.5039446875,353.51110374999996,353.507901,353.5038830625,353.49755481249997,353.48899737500005,353.47791237499996,353.46012606249997,353.44887925,353.4383105
353.96986449999997,354.003844,354.0248325625,354.0500721875,354.0755525625,354.0978066875,354.121997125,354.1575614375,354.1887295625,354.2119715625,354.24406287499994,354.2556756875,354.284332875,354.3122073125,354.324427125,354.34021625,354.34150775,354.34277475,354.3555305,354.3779080625,354.40019425,354.427614875,354.44478649999996,354.457336125,354.463773875,354.46858018750004,354.47726418750005,354.4842916875,354.48974575,354.4922274375,354.488530375,354.4955249375,354.505838625,354.51984325,354.5106946875,354.5194773125,354.5308453125,354.54318381250005,354.5875388125,354.6040471875,354.6353305,354.6681700625,354.692846625,354.7187436875,354.681165125,354.6091310625,354.5258796875,354.423438625,354.37497518749996,354.3679935,354.3417410625,354.3261048125,354.2986200625,354.27453212499995,354.29533925,354.30740031249996,354.3133734375,354.30396437499996,354.28287018749995,354.261101375,354.24745674999997,354.22829581250005,354.198034,354.20664381250003,354.1876215,354.18472175,354.2000744375,354.2258523125,354.27644018750004,354.329591875,354.3627046875,354.343002625,354.3253309375,354.2984268125,354.27694375,354.26695662500003,354.25695475,354.239877,354.2282019375,354.2191530625,354.2098581875,354.20157162500004,354.18887462500004,354.17859956250004,354.1743365625,354.17422362499997,354.1701901875,354.16143,354.1492229375,354.130141875,354.1120985625,354.100181625,354.08606275,354.079351125,354.07333706250006,354.06272187499997,354.05404181250003,354.03995556250004,354.0318551875,354.0246879375,354.01776462500004,354.00746843750005,353.9911596875,353.9771048125,353.964847375,353.9741488125,353.9693565,353.9488835,353.936594125,353.9104028125,353.9022499375,353.90681931250003,353.896319375,353.88762899999995,353.87818243749996,353.8692456875,353.86635025,353.8563041875,353.8448855625,353.834323375,353.82248075,353.8309135,353.82578481250005,353.8197471875,353.8111863125,353.780779875,353.768328375,353.762553125,353.760402,353.76546662500004,353.7697194375,353.7687935,353.7706871875,353.7850040625,353.810373,353.8213283125,353.82587975,353.81297406249996,353.7715250625,353.74708231249997,353.72467631250004,353.70187987500003,353.69667343749995,353.68987668750003,353.681815375,353.672548875,353.6614368125,353.646480875,353.6336571875,353.623022625,353.6092575,353.59473637499997,353.583963125,353.57929356249997,353.57443975,353.5712160625,353.5578880625,353.542183375,353.529757625,353.5233315,353.5273884375,353.531955,353.54014537499995,353.54753168749994,353.5543483125,353.55533375,353.5525403125,353.548504375,353.5432675625,353.54331675000003,353.546699125,353.54950506250003,353.5476915625,353.5368058125,353.528313,353.5211173125,353.5170463125,353.52353275,353.52643250000006,353.5297270625,353.52131125000005,353.518756375,353.51485506250003,353.510635375,353.51780625000004,353.5145706875,353.5117515,353.5062485625,353.497920625,353.488869,353.4711104375,353.46068406250004,353.45096656249996
353.9616495,353.985819875,354.01341525000004,354.037178375,354.0614273125,354.08322093749996,354.1063966875,354.14201943750004,354.1685315,354.193950375,354.235265375,354.25579868750003,354.2982814375,354.32781143750003,354.33181243750005,354.3388093125,354.33832056250003,354.34355531250003,354.3530665625,354.3730368125,354.386986875,354.408883375,354.433512125,354.450804125,354.46730743750004,354.4784541875,354.4823353125,354.48689924999996,354.487573375,354.483475375,354.490309375,354.4961764375,354.51583781249997,354.5430068125,354.5390899375,354.5640896875,354.57956681250005,354.59476668750006,354.62428862499996,354.62473543749996,354.6416350625,354.65874556250003,354.68515481249995,354.7128865625,354.70087149999995,354.65789975,354.57929187499997,354.4798944375,354.43313087499996,354.388646375,354.3605075625,354.34630443749995,354.3044401875,354.28335981249995,354.294151625,354.3080420625,354.30743906249995,354.3071016875,354.288317,354.27399475000004,354.256500375,354.2375385625,354.2165384375,354.20225968750003,354.18498781249997,354.1849804375,354.2039499375,354.24316225,354.2938909375,354.34485806249995,354.3739551875,354.3524841875,354.33436712499997,354.307624625,354.285961125,354.27854325,354.269336625,354.253755125,354.24262375,354.23183625,354.222901625,354.21447212500004,354.20211462500004,354.1937781875,354.1896133125,354.1893748125,354.1864134375,354.1762739375,354.1644560625,354.1456853125,354.1275609375,354.1162534375,354.09986887499997,354.090902875,354.084328625,354.07266925,354.065056125,354.05290406250003,354.04336143750004,354.0384899375,354.03184124999996,354.01910675,354.0034788749999,353.9872193125,353.97321493749996,354.0009549375,353.98462362500004,353.9652305625,353.9528493125,353.9107389375,353.91498875,353.9199694375,353.91335587500004,353.905296875,353.8950009375,353.8864443125,353.88108756250006,353.8698795625,353.86106168749996,353.8506665,353.8385550625,353.84636443750003,353.83833668750003,353.8325154375,353.8264303125,353.7985545625,353.785128,353.77596037499995,353.772788125,353.775777875,353.7823689375,353.7848060625,353.7855205,353.813617125,353.8356050625,353.8556961875,353.8639955625,353.849536125,353.8105589375,353.775080375,353.7495619375,353.71586775000003,353.70980825,353.7042788125,353.695651375,353.68564925,353.6758164375,353.6591309375,353.64562574999997,353.634184625,353.6214514375,353.60661,353.59181225,353.585713125,353.57863225000006,353.57598775,353.566462875,353.55030831249996,353.537337,353.5292120625,353.5312886875,353.53581325,353.543352625,353.550233125,353.5570064375,353.559710375,353.55868193749995,353.5558705,353.5515225625,353.54937643750003,353.550657,353.55340781250004,353.5532158125,353.5445249375,353.53581087500004,353.52833725,353.52213543749997,353.52591474999997,353.5288897500001,353.5319840625,353.5256778125,353.525616875,353.5220573125,353.51820187500005,353.5246000625,353.52129225,353.5190120625,353.5137118125,353.505800875,353.498514375,353.4813750625,353.4719759375,353.46294993749996
353.96616362500004,353.9734960625,353.9989974375,354.019226625,354.04112593750006,354.06975325,354.0927811875,354.1186349375,354.1579705625,354.1842099375,354.2356373125,354.27270125,354.29501475,354.3251506875,354.32009200000005,354.321278125,354.3303266875,354.330666875,354.33875749999993,354.3635834375,354.374454375,354.405171625,354.4309905625,354.44584593750005,354.4684384375,354.47612793750005,354.481940375,354.481111375,354.474472,354.47618075,354.48895075,354.4981346875,354.52111049999996,354.5413981875,354.5420981875,354.5658880625,354.581352125,354.59665825,354.6128995,354.6019801875,354.6168995,354.6348635,354.663240125,354.7042779375,354.7192811875,354.7032700625,354.62079168749995,354.5489665,354.48287781249996,354.4280706875,354.4081910625,354.37280575,354.33590825,354.31493981250003,354.3275134375,354.3395155,354.33362256249995,354.3315168125,354.30910875,354.30325437500005,354.2874490625,354.25863106249994,354.23931799999997,354.203807375,354.1863259375,354.1860368125,354.193111875,354.2449805625,354.2945168125,354.33149818749996,354.3707839375,354.3490393125,354.3310265625,354.318328875,354.29788606249997,354.291307875,354.28162593750005,354.2668074375,354.25597212499997,354.24518175,354.23632906250003,354.2294279375,354.218250375,354.2101725,354.206109875,354.20363968749996,354.20069606249996,354.1889685,354.1777458125,354.1582864375,354.1401209375,354.1298805,354.11302449999994,354.10405825,354.09648875000005,354.0853759375,354.0771865625,354.064683125,354.05449362499996,354.048059375,354.0407746875,354.0296105,354.0156039375,353.99891012499995,353.984688125,354.009490125,353.9927148125,353.97371093749996,353.96164575,353.9229305,353.927569,353.9341323125,353.93071993750004,353.9226629375,353.9122351875,353.904473375,353.89618325000004,353.88409525,353.876349,353.8658985,353.853973375,353.8616424375,353.85054981250005,353.8454643125,353.8404650625,353.81469,353.80219612499997,353.79056856249997,353.7872934375,353.788694125,353.79569925000004,353.7993725,353.7988825625,353.839822,353.872594375,353.9016056875,353.91952950000007,353.90350875,353.855997375,353.81106324999996,353.77554699999996,353.73171956249996,353.72423875,353.7174355625,353.7104940625,353.70005349999997,353.6880156875,353.6726105,353.6567948125,353.6440631875,353.6325230625,353.6168391875,353.603207625,353.597993,353.5904139375,353.587845875,353.5833810625,353.56568031250004,353.5517530625,353.54221762500003,353.53684931249995,353.54058387500004,353.54732993749997,353.55358681250004,353.5603845,353.564327375,353.5656211875,353.5636935625,353.559617875,353.5564099375,353.555640125,353.557654875,353.558003,353.550341625,353.54233124999996,353.53455599999995,353.52874499999996,353.5304255,353.53172200000006,353.534541875,353.53718425,353.53829531250005,353.53581856249997,353.53234425,353.52988974999994,353.5276225,353.526353,353.51304681249997,353.505717625,353.498718875,353.4889215,353.4893318125,353.4808876875
353.94947575000003,353.956902625,353.9800778125,353.9995489375,354.02773781250005,354.05612093750005,354.07920281250006,354.10351606250003,354.14295987500003,354.17048124999997,354.22180243749995,354.25873756249996,354.27370056250004,354.3005935,354.2972630625,354.3004810625,354.3126078125,354.3169644375,354.325204375,354.3471384375,354.36112787499997,354.3882821875,354.4130590625,354.4308763125,354.453603875,354.465818625,354.47193756250005,354.4729959375,354.4727003125,354.47883825,354.49152268750004,354.5065863125,354.5254446875,354.5395213125,354.5526244375,354.5678869375,354.5821921875,354.59633193750005,354.6002498125,354.5939275,354.607175375,354.6254373125,354.65493106250005,354.6921739375,354.7108201875,354.7212956875,354.665248875,354.62127649999996,354.5595856875,354.48629168749994,354.45197793750003,354.3995416875,354.37502843749996,354.3561514375,354.3695245,354.36704968749996,354.34702949999996,354.349375125,354.31747056250003,354.32957425000006,354.31207612500003,354.2861884375,354.280768125,354.2365365,354.2239355,354.21387643749995,354.1964595,354.24843356249994,354.29666268750003,354.33090668750003,354.3954670625,354.385267625,354.367785625,354.355811,354.322407875,354.3036588125,354.29307606250006,354.2783935,354.267379625,354.25721193749996,354.24962268750005,354.2435216875,354.2334733125,354.22624356250003,354.22071974999994,354.2164436875,354.21460225,354.2033621875,354.1935018125,354.175999875,354.157141625,354.14488193750003,354.12622624999995,354.11510575,354.106144125,354.09506575,354.0867876875,354.07536212499997,354.0645468125,354.05735012499997,354.05006318750003,354.039769125,354.02801675,354.0121905,353.99911118750003,354.0380046875,354.00776975,353.9890919375,353.97600075,353.924398375,353.9416631875,353.949559125,353.9486846875,353.9384415,353.9270958125,353.91913312500003,353.9075694375,353.8966628125,353.888805,353.878180375,353.86853056250004,353.87483562500006,353.8638511875,353.85901112500005,353.85422906250005,353.831660625,353.8207438125,353.807922,353.8035991875,353.80298700000003,353.8076131875,353.810527875,353.8096725625,353.86019281250003,353.902824875,353.92904100000004,353.95649543750005,353.918950125,353.86448068749996,353.8222818125,353.776911875,353.7447169375,353.736983,353.7328021875,353.72636431250004,353.716538625,353.7027773125,353.68521875,353.6687318125,353.65473937499996,353.6447024375,353.630148875,353.6179535625,353.6138388125,353.6048609375,353.6012856875,353.59550618749995,353.578468125,353.56444175,353.554349625,353.54819775,353.5480344375,353.5527856875,353.55806875,353.56340375,353.5681875,353.5704796875,353.5691303125,353.558671375,353.54954250000003,353.5476188125,353.548958125,353.55636006249995,353.5602915,353.5547976875,353.54659637500004,353.54163843749996,353.5371821875,353.53495975,353.5367803125,353.5382118125,353.54013525,353.53970174999995,353.53733462499997,353.53523199999995,353.533418,353.5324433125,353.51974268749996,353.5132698125,353.5063190625,353.49730618750004,353.49913,353.492186
353.92745406250003,353.94306668750005,353.96503774999996,353.989763625,354.01544249999995,354.042379375,354.06529150000006,354.0894283125,354.12694818750003,354.15450250000004,354.1991243125,354.2302876875,354.240406125,354.2683271875,354.2708245625,354.2809541875,354.29871956249997,354.3051873125,354.31683625,354.337621375,354.3507200625,354.3746074375,354.3981144375,354.415735875,354.4394994375,354.45289981250005,354.459032625,354.46359075,354.4642264375,354.471158875,354.483846625,354.49639625,354.5118229375,354.524998375,354.5390816875,354.5546375,354.57139225000003,354.58452900000003,354.5997713125,354.594423,354.6050220625,354.624305875,354.6424159375,354.6796623125,354.7020461875,354.71782675000003,354.68727456249997,354.6705264375,354.624357375,354.57289818749996,354.52533174999996,354.45455668750003,354.4213554375,354.3889968125,354.39128300000004,354.381896875,354.35884887500004,354.3495605,354.33061956250003,354.3444104375,354.3248224375,354.30054468750006,354.28661893749995,354.24557475,354.25188249999997,354.2455030625,354.240488375,354.290256,354.32276225000004,354.35476225,354.4056180625,354.4069378125,354.39067812499997,354.3786105625,354.346091375,354.3162455625,354.30462125,354.2903308125,354.279354625,354.26970525,354.26329675,354.2582770625,354.2495873125,354.2443980625,354.236694125,354.22965562499996,354.2281259375,354.216771,354.2183200625,354.2041904375,354.184475,354.1694313125,354.1406170625,354.12692906250004,354.11890950000003,354.1088204375,354.09952875000005,354.08879275000004,354.0757566875,354.06712581249997,354.05983206250005,354.0494140625,354.03878525,354.0245086875,354.01176731249996,354.0659736875,354.03368324999997,354.02426449999996,354.0112023125,353.9460160625,353.96598700000004,353.9650220625,353.9652733125,353.95286768750003,353.939348625,353.93002375000003,353.917216875,353.9063593125,353.8989861875,353.8883713125,353.87916375000003,353.86970831250005,353.858134,353.852059875,353.8482351875,353.8452826875,353.83792343749997,353.8290555625,353.823721,353.81938425,353.8202970625,353.8209415625,353.8204626875,353.869127625,353.91011268750003,353.9450313125,353.97002968749996,353.9460226875,353.89704775,353.857817125,353.8150880625,353.77184662499997,353.76402256250003,353.747336625,353.73963237500004,353.7316185625,353.7060498125,353.6897095625,353.673226625,353.65662475,353.65531775,353.64249474999997,353.6330246875,353.629269625,353.620740125,353.6157553125,353.607903625,353.59197574999996,353.5782136875,353.56681243749995,353.55938025,353.556427875,353.55808625,353.5624018125,353.566453625,353.5706481875,353.5743320625,353.57358718750004,353.5640433125,353.55575331250003,353.55320643749997,353.5531629375,353.56036700000004,353.56416706249996,353.5603216875,353.5528398125,353.54755881250003,353.5367026875,353.5320898125,353.5321520625,353.53278149999994,353.5406563125,353.54219181249994,353.5414736875,353.54017575,353.538688,353.53760587500005,353.525761625,353.52053862500003,353.51345781249995,353.5061673125,353.50880912499997,353.5025579375
353.9283724375,353.946247625,353.96031031250004,353.98259131250006,354.00638431249996,354.03113575000003,354.052600875,354.0757308125,354.1110138125,354.13634243750005,354.17195300000003,354.195193625,354.2016766875,354.22607100000005,354.238927,354.2600575,354.283718875,354.2957528125,354.3187969375,354.339521625,354.3527163125,354.37438018750004,354.3893368125,354.411899625,354.4387236875,354.4507919375,354.4536083125,354.45248725,354.45205531249997,354.463691125,354.4767480625,354.4892998125,354.502040375,354.5141141875,354.5281448125,354.5391178125,354.5563585625,354.5683713125,354.582496875,354.58272612499997,354.58247306249996,354.58918743749996,354.6066528125,354.6439210625,354.678331125,354.706755875,354.7021995,354.71131837499996,354.6679320625,354.6440414375,354.60074018750004,354.514502875,354.4861253125,354.4330305625,354.410774,354.3946218125,354.37466762500003,354.3615195,354.3422619375,354.34515956250004,354.3185184375,354.29575818750004,354.2854201875,354.25878675,354.278580625,354.2741225,354.26528925,354.3122313125,354.332421875,354.36431868750003,354.429739875,354.43275612499997,354.416474125,354.404372,354.359357375,354.3278951875,354.3165735,354.3017111875,354.2903921875,354.28237325,354.27678325,354.27373575,354.27484475,354.26882625,354.25890749999996,354.24908525,354.23778625,354.2275129375,354.237626375,354.2334868125,354.21398425,354.197405125,354.1616131875,354.1383838125,354.1288888125,354.119488875,354.108112375,354.0974403125,354.0851844375,354.0744470625,354.068109875,354.060203625,354.050251375,354.0378999375,354.026396,354.075753125,354.05441399999995,354.044156625,354.0313528125,353.971926625,353.9823721875,353.9829875625,353.98383006250003,353.968765125,353.95325756249997,353.94270075000003,353.927967375,353.91612837499997,353.9068426875,353.89623825,353.887973375,353.87912374999996,353.8700409375,353.8628125,353.8564146875,353.8536275,353.8492296875,353.8436115625,353.84060475,353.835633625,353.832318875,353.8309778125,353.84158018749997,353.88742225,353.9267500625,353.959028,353.9801266875,353.9492948125,353.90521575,353.87952475,353.8297823125,353.79671506249997,353.7867490625,353.75948937500004,353.75222206250004,353.74352024999996,353.71794825,353.701992625,353.6842518125,353.6680379375,353.66543075000004,353.6543,353.64852837499996,353.645837875,353.64007012499997,353.6338461875,353.6221646875,353.6078945,353.5925748125,353.58011256249995,353.5736078125,353.566703125,353.56611856250004,353.56831181250004,353.57020275,353.573663,353.57741293749996,353.5777795,353.5683826875,353.5610610625,353.55857775000004,353.55759350000005,353.56579962500007,353.5690148125,353.566707125,353.56039725,353.5545719375,353.5447645625,353.5390108125,353.53669025,353.53647487499995,353.5425331875,353.5441494375,353.54582068749994,353.5443903125,353.54344581249995,353.54284775,353.53062950000003,353.527372,353.5103821875,353.4935119375,353.497359125,353.4917444375
353.911556625,353.9372085625,353.94382106250004,353.96784525000004,353.990686875,354.00775125,354.03428875,354.062582625,354.083716375,354.1081358125,354.1347856875,354.158820375,354.1853486875,354.20968837500004,354.2337393125,354.25667081250003,354.274336875,354.2915365,354.31480687500004,354.3233135625,354.33642287500004,354.34704531250003,354.35859231250004,354.38807125,354.40979849999997,354.42775625,354.4334693125,354.4368933125,354.4441505,354.455505625,354.474819375,354.48719525,354.49740031249996,354.51089825,354.5190943125,354.5291849375,354.546418125,354.55284006249997,354.565695375,354.57659075,354.56760549999996,354.5758224375,354.5935505,354.61916875,354.6622996875,354.694648625,354.7101469375,354.7221629375,354.7044201875,354.6832535,354.6470341875,354.5849505,354.54247775,354.48247418750003,354.4375691875,354.39820893750004,354.3698414375,354.36443418749997,354.34530393750003,354.3394695,354.3144468125,354.29354112500005,354.286538625,354.283689625,354.30486793750003,354.2881229375,354.27595168749997,354.3072625,354.326162875,354.3706083125,354.45043593749995,354.45888675000003,354.44497281249994,354.43229525000004,354.386249625,354.3520529375,354.34036437500004,354.32620975,354.303969375,354.29730643749997,354.299681125,354.302519,354.310295,354.3041915,354.284425875,354.25654218750003,354.23725943750003,354.2277551875,354.2370045,354.254236875,354.2449168125,354.22671825,354.1928634375,354.1586670625,354.13808806250006,354.1270893125,354.1136375625,354.104005875,354.09222831249997,354.0830509375,354.078265625,354.06988375000003,354.0600290625,354.0490541875,354.05132225,354.0990215,354.092626375,354.0837503125,354.0610083125,354.006597375,354.004476,354.0037310625,354.002158125,353.9846306875,353.965894625,353.9534353125,353.93749312499995,353.923934875,353.91373287500005,353.90344806250005,353.895301625,353.887721125,353.88132375,353.872744,353.865774375,353.862296125,353.85950218749997,353.857364375,353.855823875,353.8502215,353.8442416875,353.8520071875,353.8722976875,353.9156745,353.952726875,353.9644179375,353.973533,353.94469506250005,353.91105325,353.87960418750004,353.832434625,353.80077125,353.78264681250005,353.75982075,353.74676587500005,353.7377381875,353.7129420625,353.707630625,353.694921625,353.67818850000003,353.67498850000004,353.6645069375,353.65781412499996,353.654712875,353.6494584375,353.64382675,353.63355887499995,353.621333625,353.607627,353.5944249375,353.587486625,353.578811625,353.574509625,353.5748799375,353.5748325625,353.5771065,353.58060893749996,353.581386875,353.572037875,353.5646535,353.561579875,353.560245,353.56858650000004,353.57293343749996,353.5716995,353.566868125,353.56150656249997,353.55189943749997,353.5443229375,353.540041125,353.53796575,353.5424716875,353.5459231875,353.54797775,353.5477420625,353.542797625,353.530438125,353.527602625,353.51451737499997,353.4923709375,353.4871808125,353.4827,353.4889198125
353.90505162500006,353.929767125,353.93812950000006,353.96094668750004,353.9751084375,353.9923951875,354.02532287500003,354.0525011875,354.07260331250006,354.093646,354.11935143750003,354.1435670625,354.1701935,354.1953850625,354.2195359375,354.24357031249997,354.26217556250003,354.2805515,354.3050065,354.31424937500003,354.32818799999995,354.35176912500003,354.3612315625,354.38668375,354.4092595625,354.4166919375,354.4241338125,354.429836125,354.435167375,354.44380156249997,354.4643965625,354.4777348125,354.48799124999994,354.5025240625,354.50969225,354.5185928125,354.5378213125,354.544449,354.5522335,354.57120399999997,354.5604010625,354.56074643750003,354.5825339375,354.59928406250003,354.64237125,354.6825569375,354.6980281875,354.7117655625,354.719914125,354.7214808125,354.7055096875,354.66550762500003,354.60215368750005,354.52127262500005,354.4719404375,354.4125044375,354.382061625,354.38926406249993,354.3589685625,354.3442460625,354.32426518750003,354.29716793750003,354.2926575,354.30373275,354.324851125,354.3053275,354.2906046875,354.3043311875,354.32310937500006,354.3681969375,354.437473375,354.46230449999996,354.45669525,354.44336050000004,354.419865125,354.3849601875,354.364281,354.35109,354.3194830625,354.31385787499994,354.31525575,354.31774,354.33158875000004,354.3314668125,354.3010801875,354.27927581250003,354.253306625,354.2361374375,354.262204625,354.27893975,354.2770950625,354.26562325,354.22570900000005,354.1836708125,354.1529974375,354.1350891875,354.11987625,354.11082381250003,354.10076975000004,354.09142299999996,354.0876784375,354.07920950000005,354.0680235,354.05794281249996,354.05949618750003,354.1058575625,354.1277385,354.121004125,354.1036640625,354.053512875,354.01174543750005,354.0080730625,354.00226525,353.983353875,353.975501625,353.9628376875,353.94829200000004,353.93248475,353.92350087500006,353.91258312499997,353.90175212500003,353.90928425,353.903680375,353.895664,353.88883293749996,353.8713800625,353.8690421875,353.8703143125,353.8707381875,353.865144875,353.8581634375,353.86268275,353.89219675000004,353.932862,353.9679779375,353.97883512500005,353.9761773125,353.95858987500003,353.9270455625,353.898856375,353.853794625,353.81392575,353.795007,353.7579465625,353.744926125,353.734682,353.71053025,353.7185655625,353.70477231250004,353.68786112500004,353.6837575,353.67346856250003,353.6671235625,353.66331418749996,353.6586121875,353.65306475,353.643250375,353.63262575,353.6206215625,353.6055971875,353.5969265,353.5885316875,353.5818024375,353.580859875,353.5811146875,353.5814063125,353.58503431249994,353.58662912499994,353.585054625,353.5832874375,353.5794694375,353.57537018749997,353.5754770625,353.57556112500004,353.574007625,353.57310375,353.5680568125,353.5575575625,353.5519321875,353.54612875,353.54221199999995,353.54602450000004,353.53957475,353.5412440625,353.543327625,353.5378175625,353.5335685,353.5317681875,353.5109320625,353.490499125,353.486440125,353.4814728125,353.4847500625
353.9135823125,353.929125625,353.93972175,353.95521362499994,353.963126375,353.9794824375,354.01041956250003,354.03552306250003,354.061836,354.0815184375,354.10489762500004,354.13017862500004,354.156865375,354.1821005,354.2059250625,354.22981243749996,354.24960418750004,354.2669939375,354.29278412499997,354.30198299999995,354.31574349999994,354.35413268749994,354.36269206249995,354.386288875,354.40786649999995,354.40232818749996,354.41180299999996,354.418533125,354.4239255,354.43199000000004,354.4590395,354.47334775,354.48680425,354.50210281249997,354.49812,354.50693812500003,354.5228505625,354.5304236875,354.54189637499996,354.56007731249997,354.5502501875,354.5430865625,354.56487825,354.5795768125,354.620747875,354.66766068749996,354.6833453125,354.6999825625,354.710321,354.7149294375,354.71803900000003,354.69960837499997,354.659692125,354.5723421875,354.49926881249996,354.42011987499995,354.369497375,354.41071287499994,354.38989225,354.37844931250004,354.3621253125,354.31231756249997,354.308978,354.333602875,354.33576981249996,354.31253106249994,354.2856306875,354.28387575,354.31972562500005,354.367441125,354.44664750000004,354.47304906249997,354.46812518750005,354.4635759375,354.4544674375,354.4199154375,354.39947275,354.37764025,354.34168900000003,354.33635918749997,354.33676425,354.34356387500003,354.35550225,354.3604488125,354.336467875,354.3160150625,354.27030775000003,354.25318425,354.2693999375,354.2851390625,354.304087375,354.2882659375,354.2532601875,354.192744125,354.1494621875,354.128094625,354.10941325,354.1123241875,354.106262125,354.08788274999995,354.075263625,354.06714850000003,354.0568414375,354.0574080625,354.06990499999995,354.11341749999997,354.1496215625,354.1455585625,354.131274625,354.0857935625,354.031269375,354.026292125,354.01687575,353.99660612499997,353.98875375,353.9743190625,353.9604196875,353.9436940625,353.932799875,353.92179462499996,353.91069568750004,353.9190325625,353.913952,353.906229,353.898564875,353.8804291875,353.87755825,353.8798153125,353.88230381249997,353.87828518749996,353.87091275,353.88467181249996,353.92258325,353.95869937500004,353.99244787500004,353.98421962500004,353.9712446875,353.9566865625,353.9345448125,353.90588062499995,353.8475685625,353.807717875,353.780651125,353.7540615625,353.75423781250004,353.732520625,353.7184929375,353.7259118125,353.71385937499997,353.707678375,353.692939625,353.68128225,353.6732223125,353.66898437500004,353.66548181250005,353.6564804375,353.643649,353.6342469375,353.6226106875,353.61375787500003,353.60771275,353.59965,353.592133,353.58750118750004,353.5874801875,353.5865526875,353.58935956249996,353.5919251875,353.5904885,353.588471625,353.5843139375,353.57944125000006,353.578871125,353.5799766875,353.57951299999996,353.57931031249996,353.5760345,353.571368625,353.5663834375,353.5547499375,353.548349,353.544356375,353.535598125,353.542718625,353.54512993750006,353.540961375,353.5363136875,353.5346978125,353.51443,353.49436149999997,353.49201175,353.487034375,353.482551875
353.89962587499997,353.91388868749993,353.9234835,353.94769806249997,353.9496001875,353.95996225,353.990859,354.0147931875,354.04694775,354.0718570625,354.0928804375,354.1171790625,354.1416464375,354.166663625,354.1905935,354.214406125,354.2362430625,354.25467675,354.270371875,354.2798058125,354.293583625,354.3320888125,354.34264537499996,354.357812375,354.3714661875,354.3658459375,354.385539375,354.400482125,354.4140111875,354.4209179375,354.4468876875,354.462167875,354.4756381875,354.492004625,354.4880725625,354.5011485,354.5169703125,354.5257299375,354.53813149999996,354.54826237500004,354.54738150000003,354.549873125,354.568766875,354.5854124375,354.61584500000004,354.6512705625,354.66901725,354.68747656249997,354.70063,354.70916412500003,354.71504600000003,354.716358625,354.690008875,354.602042875,354.5304318125,354.4350193125,354.36242768750003,354.4074061875,354.3886628125,354.38050018750005,354.37846275000004,354.34081000000003,354.3355526875,354.355098375,354.3437509375,354.30640912499996,354.28130325,354.2686235625,354.31636000000003,354.36609406250005,354.435534125,354.48619093750006,354.48275325000003,354.48634181250003,354.49649975,354.46351875000005,354.4418454375,354.4132689375,354.36868987500003,354.3594551875,354.364178375,354.37385575,354.381608375,354.3842075,354.36071981249995,354.341154625,354.2956768125,354.2784491875,354.2857585625,354.291735625,354.3197580625,354.3050316875,354.272109625,354.2144399375,354.1631099375,354.133445,354.11526581249996,354.11756875,354.1117294375,354.0948444375,354.0816176875,354.07410725,354.0639960625,354.076545125,354.08991175,354.132792625,354.1859434375,354.1716620625,354.16048043750004,354.1161694375,354.03293793750004,354.0249218125,354.0107865,354.00273743750006,354.0086610625,353.99406125,353.98329256249997,353.954345375,353.9405775625,353.92871074999994,353.91679862499996,353.9154410625,353.9110273125,353.90494025,353.8965520625,353.88764381249996,353.897622875,353.90015243749997,353.9043949375,353.90133281249996,353.881329125,353.90507112499995,353.9391551875,353.97270568749997,353.996407625,353.9776173125,353.957273,353.95255525000005,353.947550875,353.90994149999995,353.86123568749997,353.81367606249995,353.7792783125,353.7707495625,353.77731525,353.74386499999997,353.7194955,353.71822431249996,353.7000785,353.70565825,353.70162600000003,353.68977125000004,353.68037250000003,353.6753523125,353.671370625,353.661969125,353.65041906249996,353.64123206249997,353.6306511875,353.6229689375,353.6155893125,353.6078945,353.600261,353.5942124375,353.594461125,353.5934323125,353.59513225,353.59770787499997,353.59614562499996,353.58935937499996,353.58483025,353.57947106250003,353.5772790625,353.58270768750003,353.58372075,353.5836979375,353.5819289375,353.577266625,353.5713505,353.56236775,353.5554723125,353.5501559375,353.540807,353.54311706249996,353.545096375,353.5421799375,353.53675025,353.5375178125,353.5175001875,353.50812187500003,353.5174436875,353.5127325,353.5013011875
353.895103125,353.9152999375,353.932309375,353.9544439375,353.956331125,353.96667125,353.99009187499996,354.0073463125,354.038572875,354.05725825,354.074897375,354.09697774999995,354.118935625,354.1489469375,354.17417850000004,354.19711800000005,354.2200318125,354.23937543750003,354.25619362500004,354.2700749375,354.28396525,354.3228271875,354.33334106250004,354.3451684375,354.35887175000005,354.3529295625,354.3726031875,354.38924975,354.4038045625,354.4109103125,354.43188050000003,354.446363625,354.45973806250004,354.4759045625,354.47679568750004,354.490683375,354.50647425,354.5205539375,354.53421149999997,354.543551375,354.5525129375,354.550828625,354.5605109375,354.5751805625,354.594106125,354.62762499999997,354.6544695625,354.674982,354.69086300000004,354.70158349999997,354.709627875,354.71420112500005,354.7021516875,354.637784625,354.56750550000004,354.475031125,354.39212993750004,354.4170600625,354.4239056875,354.42686887499997,354.42670618750003,354.39059825000004,354.35986625000004,354.3565601875,354.34189725,354.30433525,354.282286375,354.271147625,354.32222112499994,354.37225562500004,354.4388154375,354.5081369375,354.5027436875,354.51373325000003,354.521002625,354.48995443750005,354.4786556875,354.4431765,354.4090374375,354.3955668125,354.387553625,354.3936675625,354.3925865625,354.39261862499995,354.376898875,354.3754423125,354.33573824999996,354.31887806249995,354.325611125,354.3117866875,354.3322756875,354.31839175,354.286209875,354.2304399375,354.188353125,354.161128125,354.13649418750003,354.13980012499997,354.12733537500003,354.10118831249997,354.0874466875,354.08077449999996,354.07144412499997,354.0975125,354.1101750625,354.1512164375,354.2017263125,354.1748611875,354.1651821875,354.12115612499997,354.0409958125,354.03337799999997,354.0184905625,354.02320025000006,354.03079218749997,354.01529600000003,354.005031625,353.96520499999997,353.94990393750004,353.93740875000003,353.9254229375,353.9368075,353.93103356250003,353.9265410625,353.91902300000004,353.896327125,353.90646975000004,353.907716375,353.9118068125,353.91083437500004,353.8916101875,353.903347125,353.93488525,353.96449231249994,353.9871786875,353.9881815,353.9686275,353.96552156250004,353.9598414375,353.93073918749997,353.882702125,353.8236184375,353.79010125,353.77719375,353.78897099999995,353.76797424999995,353.7439409375,353.73152331250003,353.70911049999995,353.7156156875,353.71102125000004,353.6993419375,353.6888999375,353.6815170625,353.677851,353.66764187499996,353.6563733125,353.6487494375,353.6384544375,353.6317530625,353.62474268750003,353.61683912499996,353.6098006875,353.60322725,353.602805,353.60119387500004,353.6024884375,353.6040084375,353.60253975,353.59576374999995,353.5906866875,353.58511156249995,353.582646625,353.58690924999996,353.58876768749997,353.59027649999996,353.5878355625,353.584186875,353.579727375,353.57052837500004,353.5575929375,353.5516013125,353.538945125,353.54032531250004,353.54765768749996,353.5489849375,353.55587943750004,353.5557145,353.547527875,353.5450564375,353.54312625,353.54007275000004,353.518285
353.8982489375,353.9183153125,353.93288156250003,353.9490846875,353.950879,353.9609355625,353.9720505,353.9950746875,354.02554518750003,354.04448518749996,354.06579762499996,354.0856418125,354.10524318750004,354.1342830625,354.1590744375,354.1810425,354.203785875,354.2435335,354.2606221875,354.27471181249996,354.2879363125,354.292129875,354.3035059375,354.317204625,354.33277931249995,354.33568775000003,354.355472625,354.37303299999996,354.3877933125,354.4002620625,354.419962375,354.43334231250003,354.44750200000004,354.463793625,354.4657783125,354.48173456250004,354.4967554375,354.51154468749996,354.53027475,354.53779075,354.54848649999997,354.5516986875,354.554353625,354.569978,354.58598056249997,354.6119313125,354.64077331249996,354.6613773125,354.6792185625,354.69362225,354.703961125,354.7101930625,354.7127606875,354.67110575000004,354.59132718750004,354.50243181250005,354.411868875,354.39754925,354.41944912499997,354.42400231249997,354.4204345625,354.391091125,354.345676625,354.3388875,354.3244481875,354.3114136875,354.3174694375,354.3201830625,354.379287375,354.4197055625,354.4789538125,354.5340246875,354.51252075,354.5288195625,354.5250766875,354.50562006250004,354.512428875,354.47169431249995,354.44534862499995,354.428023125,354.4156318125,354.42398756250003,354.4156105625,354.4061838125,354.4003365,354.3921050625,354.3568646875,354.3468030625,354.3348085,354.320916,354.335252375,354.3165023125,354.29370975,354.24099875,354.20846975,354.18104612499997,354.1502195625,354.1517243125,354.1319626875,354.1058544375,354.08294275000003,354.07714725000005,354.07950174999996,354.1177033125,354.15112443749996,354.1902666875,354.228140125,354.19055268750003,354.16928306249997,354.1265760625,354.06313550000004,354.05296662499995,354.03706462499997,354.05430656249996,354.0501760625,354.03685125000004,354.02629181250006,353.97792712500006,353.96137775,353.9487593125,353.9383854375,353.93356712499997,353.9248445625,353.92011506250003,353.91379768750005,353.9045238125,353.927185,353.9272390625,353.93055275,353.930229375,353.909726625,353.93286881250003,353.9619650625,353.98887387499997,354.00056275,353.9826586875,353.96413506249996,353.961221625,353.9628151875,353.94165975,353.8936965625,353.833719625,353.7934194375,353.793495625,353.805845375,353.77453025,353.7390504375,353.7138260625,353.692098375,353.712168625,353.7193134375,353.7070386875,353.69569475000003,353.6847831875,353.680439,353.6699208125,353.6589466875,353.65417125,353.6439344375,353.639377125,353.6306854375,353.62192375,353.6154619375,353.60921825,353.609933625,353.60931262500003,353.610112,353.60906925,353.6080966875,353.60071043749997,353.5964126875,353.59321862499996,353.590006,353.5929115,353.59489468749996,353.5958276875,353.5933463125,353.5911616875,353.5855560625,353.57709025,353.56670775,353.55974675000004,353.554651375,353.5538770625,353.5577993125,353.559631375,353.5506473125,353.5500649375,353.549828,353.5475478125,353.553471875,353.54176731250004,353.52370375
353.87880825,353.8997100625,353.9121861875,353.935325625,353.9427295625,353.9542078125,353.9607304375,353.9831123125,354.006849875,354.03082368749995,354.05660218749995,354.07396775,354.0917633125,354.1185740625,354.14250625,354.1643514375,354.18686025,354.227598125,354.2455191875,354.2617584375,354.27393806249995,354.26451368749997,354.2759561875,354.28978025000004,354.30554231249994,354.3213378125,354.33984887500003,354.3573100625,354.3741050625,354.38725793749995,354.40073568750006,354.41407237500005,354.4291941875,354.44663825,354.46073650000005,354.4766799375,354.49174974999994,354.50663281249996,354.5216611875,354.5301005,354.5407165625,354.5473979375,354.5468968125,354.56057025,354.57580774999997,354.5961936875,354.627103625,354.6489395625,354.6664749375,354.683683125,354.69624831249996,354.7044941875,354.710006125,354.6707754375,354.61522325,354.532151,354.4468679375,354.43094468749996,354.4233613125,354.42647731249997,354.421001875,354.3934051875,354.355429875,354.3350094375,354.3223065625,354.3248756875,354.3340599375,354.3490041875,354.41386725,354.43925087499997,354.4961740625,354.5497118125,354.526762125,354.541883125,354.53390243750005,354.5248720625,354.5324659375,354.50248324999995,354.478758125,354.45872993750004,354.4426296875,354.44064068750004,354.4320345,354.4144549375,354.4024861875,354.3918035625,354.373859625,354.362188875,354.34916481249996,354.33582893749997,354.325172,354.313258875,354.29745575000004,354.26570781249995,354.25197537500003,354.228710125,354.19334281249996,354.1827888125,354.15252668749997,354.1285819375,354.1146315,354.11221056249997,354.12572981249997,354.163969625,354.1874858125,354.2153830625,354.2410856875,354.19349731249997,354.17305475,354.131055375,354.069351875,354.060127375,354.04547118749997,354.0635968125,354.0709114375,354.057581,354.04558806250003,354.00083837500006,353.975006625,353.9629470625,353.951792125,353.94157475,353.9300221875,353.9241736875,353.91999993750005,353.912139875,353.9366976875,353.9362219375,353.93882156250004,353.940052875,353.9283290625,353.9507299375,353.97708875,354.0009755625,354.00187525,353.984422875,353.967519,353.963687375,353.9639534375,353.94203981249996,353.908015,353.849619125,353.8108216875,353.79993,353.799528,353.7812833125,353.7340733125,353.72064175,353.6976606875,353.69598287499997,353.71750299999997,353.7053636875,353.6950585625,353.6932215,353.6861678125,353.67875468750003,353.6706275625,353.6665746875,353.65700937500003,353.6493059375,353.6385141875,353.62934781250004,353.6229065,353.6180093125,353.6173554375,353.61675775000003,353.61765225,353.615843625,353.61391043749995,353.60695868749997,353.6032561875,353.5992519375,353.5967270625,353.5983730625,353.5993791875,353.60152575,353.5999506875,353.59840806249997,353.592690625,353.5897619375,353.5796245625,353.57236581250004,353.5670261875,353.558516875,353.5611724375,353.562188625,353.55366725,353.55378056250004,353.5528975,353.55114975000004,353.557327625,353.54600668750004,353.5375415
353.8744665625,353.895286375,353.9085271875,353.9229623125,353.9305725625,353.9470625,353.96028981250004,353.981623,354.0040558125,354.0219934375,354.04646168749997,354.06355768749995,354.0799653125,354.10449037499995,354.1275030625,354.147613375,354.169230375,354.21019512500004,354.2276661875,354.2449390625,354.2571831875,354.246557875,354.25825362499995,354.2718631875,354.28852406249996,354.30547425,354.323014125,354.3405905625,354.357282375,354.3714715,354.387070875,354.401608125,354.4178395,354.43619781250004,354.450316375,354.466252125,354.481156875,354.49600287499993,354.5109964375,354.5231629375,354.53406831250004,354.54173037500004,354.54229687500003,354.5501018125,354.562134625,354.57965025,354.60854774999996,354.6314841875,354.6512234375,354.66935106249997,354.683974625,354.694301625,354.70393825,354.689892,354.65838899999994,354.5822505625,354.5207955625,354.5066334375,354.501837375,354.524068125,354.496332125,354.4377836875,354.3796889375,354.339808875,354.3284084375,354.34472725,354.3539640625,354.369277125,354.4405324375,354.46195356249996,354.52361325000004,354.5740619375,354.55071125,354.5641993125,354.5466215,354.53482131249996,354.54306131249996,354.52108362499996,354.504767125,354.4857344375,354.46105956250005,354.45079587500004,354.4350495625,354.4171446875,354.40404618750006,354.3917011875,354.37931475,354.3671775625,354.35293149999995,354.34041425,354.323363,354.3127559375,354.3053924375,354.27502375,354.27023356250004,354.2558703125,354.222781625,354.2119714375,354.1744438125,354.1507201875,354.1282066875,354.1262555625,354.15007149999997,354.1769001875,354.21166137499995,354.238421875,354.250575875,354.2204909375,354.1894075,354.14812775,354.10369112499995,354.0811540625,354.067490875,354.0746506875,354.068037875,354.05553131249997,354.053067375,354.0231145,353.9994055625,353.9860356875,353.9629995625,353.958458125,353.9449278125,353.938977,353.9371128125,353.9207158125,353.93383500000004,353.933076375,353.9340624375,353.9373449375,353.94751025,353.9685623125,353.993895625,354.0146553125,354.01271893750004,353.9959249375,353.9884906875,353.9827815625,353.972881625,353.950486125,353.90825525,353.840074,353.80344725,353.783720875,353.7776731875,353.783337625,353.74812743750005,353.744546,353.7275918125,353.71508525,353.72592018750004,353.71339224999997,353.70398,353.70120225,353.691885875,353.6841196875,353.67495118749997,353.671867,353.66430125,353.657398375,353.6477563125,353.6378135625,353.6312358125,353.62726868749996,353.62532181250003,353.62417668750004,353.6253254375,353.62262431249997,353.6197058125,353.617975375,353.61452699999995,353.6109021875,353.609443875,353.6063850625,353.60617443750004,353.6084664375,353.60795175,353.606538375,353.601237125,353.59615375,353.5850136875,353.56949775,353.55325300000004,353.546079625,353.5484155625,353.55620381250003,353.5580696875,353.55758649999996,353.5562268125,353.555203625,353.5516586875,353.54048043750004,353.54029281249996
353.87944074999996,353.89283062500004,353.90583300000003,353.9196065,353.9269360625,353.9412,353.95333800000003,353.9740025625,353.9915310625,354.01457643749995,354.03916737500003,354.0554418125,354.075962375,354.09349525000005,354.1143165625,354.1344901875,354.1537944375,354.19490699999994,354.2122759375,354.2295398125,354.242966625,354.231953,354.2447310625,354.2580383125,354.2746615,354.29182512499995,354.30739074999997,354.3220345625,354.3386638125,354.353962125,354.3705736875,354.38823887499996,354.404387875,354.4236788125,354.43889668749995,354.4549246875,354.470898,354.4859005625,354.5006828125,354.51354281249996,354.5253291875,354.53379574999997,354.541421,354.5468651875,354.556064375,354.5708044375,354.5911201875,354.6147448125,354.6355648125,354.654486875,354.670946125,354.68312906250003,354.6955098125,354.684256375,354.6775480625,354.6263325,354.569313125,354.5683535625,354.5212435625,354.5349475,354.50536975,354.437079625,354.40401875,354.3528990625,354.3448618125,354.37400325,354.39394775,354.4092369375,354.483902875,354.4984455,354.544811625,354.5942318125,354.5724569375,354.57751862500004,354.5600789375,354.5460076875,354.543432125,354.52916625,354.513038125,354.4944275625,354.4716350625,354.45389375,354.4378384375,354.4200515625,354.40554706250003,354.391006125,354.3770991875,354.3639855625,354.34971525,354.33792231250004,354.321650125,354.3120594375,354.3048995625,354.283505875,354.279796625,354.2646318125,354.24040081249996,354.22187318749997,354.19320462499996,354.179936625,354.1498459375,354.148145375,354.17223075,354.1877798125,354.22189368749997,354.24765818749995,354.2501378125,354.23447275,354.2043561875,354.1642365625,354.1212391875,354.08781925,354.07573025,354.082584875,354.0759774375,354.06417025,354.06194531250003,354.0356348125,354.01564637499996,354.00238824999997,353.9780076875,353.96978981250004,353.9526095625,353.9449789375,353.94346093750005,353.9293685,353.943746625,353.942447625,353.94233018750003,353.940907875,353.95852281249995,353.990297875,354.01406493749994,354.0368195625,354.017927125,353.988960625,353.982664875,353.973790625,353.9634990625,353.94202493750004,353.90049931249996,353.8377825,353.80902249999997,353.78944,353.78330174999996,353.787868125,353.7421255625,353.735274375,353.718138625,353.705409875,353.728791375,353.7216679375,353.713246375,353.7112336875,353.700192625,353.69056912499997,353.6804410625,353.6763639375,353.669611375,353.6638665625,353.6553705625,353.6466978125,353.6400791875,353.635877,353.63385937500004,353.6322756875,353.63270693749996,353.6304005625,353.6265353125,353.62324443750003,353.62140324999996,353.617770875,353.616402,353.6145248125,353.6129111875,353.61461099999997,353.6153418125,353.614027,353.609237375,353.6042693125,353.59936443749996,353.582913875,353.5680441875,353.55986793750003,353.554361,353.56215318750003,353.5614156875,353.561816625,353.56085993749997,353.55974506250004,353.5441561875,353.5330065625,353.53240512499997
353.86754268749996,353.88875725,353.89507375,353.9147198125,353.9220131875,353.93538,353.9574659375,353.9714083125,353.9886714375,354.0108433125,354.030939,354.04628612500005,354.066284625,354.082546625,354.1014995,354.12149193749997,354.13963556249996,354.1592071875,354.176131375,354.19325575,354.20756775000007,354.2193483125,354.2323799375,354.2458341875,354.2616864375,354.27865975,354.29319231249997,354.30491206249997,354.3214428125,354.348477125,354.3663335,354.3860921875,354.4023045,354.40896575,354.425187125,354.441142375,354.4579241875,354.47404668750005,354.488572375,354.50300012499997,354.51581975,354.5251878125,354.534761625,354.53737793749997,354.543692125,354.5583745,354.57526325000003,354.600149375,354.622097375,354.6383065625,354.657194,354.6713095625,354.68547225,354.6777673125,354.6852906875,354.6566723125,354.62040412500005,354.6414235625,354.6033070625,354.618322,354.5747740625,354.5006646875,354.46324206249994,354.4063583125,354.4094203125,354.42712025000003,354.4405663125,354.4306505,354.4898584375,354.5083813125,354.54558762500005,354.604015,354.59092975,354.58943081250004,354.570836625,354.5558813125,354.54319250000003,354.53447375,354.5195435,354.5012593125,354.480144375,354.4560135625,354.439256,354.4215300625,354.4055075,354.3895896875,354.37462025,354.36150675,354.3464975,354.33548031249995,354.3196369375,354.31026487500003,354.3042143125,354.290119375,354.2871005625,354.280927125,354.2666126875,354.2503651875,354.2309695625,354.2099200625,354.1790583125,354.1694195,354.1832309375,354.1973205,354.2223825625,354.24719774999994,354.24911925,354.2464809375,354.2176603125,354.1788319375,354.1382091875,354.097738125,354.08808325,354.081012625,354.073969125,354.05878762500004,354.05694000000005,354.04539918750004,354.028256875,354.01700562499997,354.003561,353.99322675,353.97535625,353.9654066875,353.9498975,353.948302625,353.960771125,353.9600896875,353.960217875,353.9480260625,353.965083875,353.99433325,354.016979375,354.038717875,354.0201720625,353.99294362499995,353.98667962499997,353.9760446875,353.95808250000005,353.935331125,353.88417443749995,353.825352625,353.8045189375,353.77325899999994,353.777508375,353.7932909375,353.7607929375,353.76642568750003,353.750072875,353.7242245,353.735583,353.7299858125,353.72202525,353.7229325625,353.7114349375,353.69222425,353.6810901875,353.673791625,353.6673528125,353.6701964375,353.6655725,353.65840118750003,353.651843375,353.64744093750005,353.6439444375,353.6424231875,353.6416780625,353.64111987499996,353.6364211875,353.6318208125,353.6303800625,353.62554712499997,353.6235875625,353.6221070625,353.62117856249995,353.622168375,353.623299625,353.6229849375,353.61108037500003,353.605293125,353.5896096875,353.573392,353.5664623125,353.55940387500004,353.55578449999996,353.56162931250003,353.56695818749995,353.5664848125,353.5734140625,353.572520375,353.54923156250004,353.54894743750003,353.5484840625
353.8665435625,353.8858924375,353.8910005,353.91002568749997,353.9244346875,353.93646518749995,353.9631066875,353.9766940625,353.99338425,354.009382125,354.02399575,354.03958012500004,354.0581624375,354.073396375,354.0913028125,354.1089543125,354.12617056249996,354.144927125,354.16055362500003,354.178058375,354.193542375,354.2062386875,354.220540125,354.2337678125,354.2493551875,354.26620125,354.2798100625,354.29073106249996,354.3042781875,354.330323625,354.3482171875,354.368905625,354.3873411875,354.3931440625,354.40926325,354.4252805,354.441863125,354.459853375,354.475529125,354.4908535625,354.50580325,354.51640562499995,354.5279041875,354.5322374375,354.5338173125,354.5474594375,354.561787875,354.58320875000004,354.6090075625,354.62332243749995,354.64275293749995,354.658730375,354.67293725,354.68802343749996,354.69648825,354.68979025,354.677197,354.6791898125,354.663139,354.6815300625,354.6383841875,354.5684065625,354.5280315625,354.4518825,354.4383811875,354.45569918750004,354.4740133125,354.47374725000003,354.5287668125,354.5525951875,354.56785950000005,354.615164625,354.6025940625,354.593285875,354.575799125,354.559075,354.54515625,354.53457318750003,354.51863837499997,354.499606875,354.4787020625,354.45630631250003,354.439709875,354.4222690625,354.40472256249996,354.38789537499997,354.3721683125,354.3597576875,354.3439565625,354.3334486875,354.32448456249995,354.3153211875,354.31068700000003,354.29618106249995,354.28748262500005,354.2812704375,354.2770034375,354.2623745625,354.25131931249996,354.2396609375,354.200735625,354.190663125,354.19463675,354.19865799999997,354.23410112499994,354.258341375,354.2604385625,354.269874125,354.2303405625,354.193677875,354.1551614375,354.10447856250005,354.0956550625,354.09869368750003,354.09061668749996,354.0755055625,354.084310375,354.0617008125,354.047072625,354.038012875,354.02707793750005,354.029245125,354.01132406249997,354.01050425,353.9809843125,353.97792125,353.999452625,353.98803,353.9882598125,353.972214,353.9781243125,354.00504381250005,354.0269754375,354.0413844375,354.0230509375,354.00460012499997,353.9973900625,353.985579625,353.960331,353.917984125,353.86788975,353.810831875,353.78641043749997,353.777545875,353.78168331250004,353.7966880625,353.78777418749996,353.783824875,353.7680818125,353.7535421875,353.752093375,353.74624275,353.7391718125,353.73016231249994,353.7200403125,353.7003845,353.68674575,353.67821649999996,353.671707125,353.6749855625,353.67299568749996,353.66756975000004,353.6607114375,353.6568390625,353.6536379375,353.65094818750003,353.6490480625,353.64779631249996,353.6444285,353.64058624999996,353.63916368750006,353.6352414375,353.63113250000004,353.62878006249997,353.62776699999995,353.62763262500005,353.629092125,353.6218555,353.610913375,353.60567025,353.5898365625,353.5725420625,353.5568413125,353.5417114375,353.5297960625,353.54300725,353.556207,353.562792125,353.577811625,353.57745781250003,353.5538431875,353.554982625,353.554287625
353.86442075,353.8778316875,353.8809179375,353.899075,353.92576099999997,353.9435670625,353.96266418749997,353.97598093749997,353.9858725,354.0019496875,354.01245025,354.027360875,354.0453020625,354.0597174375,354.0798501875,354.097086875,354.11313943749997,354.13047981249997,354.1481483125,354.1655615625,354.182680125,354.1977001875,354.21206225000003,354.2256029375,354.2417226875,354.257439375,354.2699974375,354.27962656249997,354.2908420625,354.31485656250004,354.331686,354.35148606250004,354.37016725,354.377024625,354.3931455,354.4102370625,354.42661262499996,354.44454368749996,354.46116199999994,354.4764281875,354.491521,354.5041948125,354.517618375,354.524859375,354.52928831249994,354.5409798125,354.55368899999996,354.5735245625,354.596664625,354.6112851875,354.630490375,354.647230625,354.6614014375,354.677181,354.687603375,354.6989746875,354.689997625,354.6930245,354.674913625,354.677870375,354.6568749375,354.60898637500003,354.591887,354.51992593750003,354.5067758125,354.522864,354.54264287499996,354.55840900000004,354.5920180625,354.603678375,354.597984375,354.6245144375,354.61119075,354.59501156249996,354.5767435,354.5589696875,354.543875875,354.5323265,354.51645868749995,354.4974818125,354.477535125,354.4557500625,354.4386215625,354.422035875,354.40394725,354.38700743749996,354.371205625,354.358276875,354.3433730625,354.33304587500004,354.3247325625,354.314778125,354.3094185625,354.3017645625,354.2925673125,354.27915168749996,354.27572699999996,354.263699375,354.26220281249994,354.2597643125,354.2214123125,354.213519,354.2081034375,354.21216425,354.24689793749997,354.2594,354.26148187499996,354.268048,354.22937718749995,354.1957161875,354.15860875,354.12133343749997,354.1140359375,354.1158115625,354.10731293749996,354.08195924999995,354.08875075000003,354.06604225,354.05518625,354.05862543750004,354.0523158125,354.0673865625,354.04794481249996,354.0469983125,354.013971125,354.0095100625,354.0296470625,354.0070301875,354.00592225,353.98596225000006,353.990525125,354.0149208125,354.03640393750004,354.0423395,354.0244,354.0058626875,353.9976993125,353.97712775,353.9461989375,353.9048093125,353.85618193749997,353.8087089375,353.780397625,353.77181306250003,353.77524343749997,353.79057087499996,353.7916795625,353.7761798125,353.7617376875,353.7465591875,353.7449676875,353.751272,353.7441438125,353.736005,353.727765875,353.7080514375,353.69489150000004,353.685712125,353.6780421875,353.6815308125,353.6795870625,353.67560925,353.669169375,353.6650685625,353.6633165,353.660331875,353.65769750000004,353.65609274999997,353.6532599375,353.6491515,353.6470363125,353.64361599999995,353.637265875,353.6342759375,353.63312625000003,353.633505,353.6347055625,353.62770056249997,353.61890174999996,353.61329756249995,353.59830931249996,353.5900490625,353.58422356250003,353.5711578125,353.55073425,353.55479337500003,353.5566188125,353.5528795,353.57566956249997,353.5754545,353.5550505,353.56409475,353.56319468749996
353.8456765625,353.8595540625,353.8705613125,353.88842275,353.908763,353.93422587500004,353.95252093749997,353.965048125,353.98426737499994,353.9995134375,354.009960875,354.02481675,354.03869825000004,354.05189325000003,354.070590375,354.0865638125,354.1026925,354.1188249375,354.1368299375,354.153188125,354.1691851875,354.185785375,354.20007662499995,354.21487675000003,354.23101175,354.2463081875,354.2589195625,354.2686861875,354.277723125,354.299796875,354.3145028125,354.3321155625,354.352076125,354.35901543750003,354.3762774375,354.39335525,354.4095981875,354.4284726875,354.445074375,354.4605905,354.474968375,354.48954512499995,354.50500962499996,354.51836225,354.52552212499995,354.53499287499994,354.54438325,354.5601666875,354.582588875,354.59780575,354.618156625,354.63560943749997,354.6497165625,354.6655355625,354.678151625,354.68868725000004,354.699474625,354.70873506249995,354.710810625,354.714701875,354.697168875,354.66653993750003,354.64986993749994,354.5829095625,354.5508730625,354.555695625,354.5651645625,354.5977345625,354.63092374999997,354.63378412500003,354.6145306875,354.620249625,354.60428793750003,354.5877750625,354.57477500000005,354.5561061875,354.54097743750003,354.52825624999997,354.51217299999996,354.494261125,354.47527168749997,354.45460506250004,354.43772275000003,354.421355375,354.40390875,354.387173625,354.3707708125,354.358517875,354.343879625,354.3315138125,354.3230805,354.3126286875,354.3068263125,354.302097875,354.29379443749997,354.28119431249996,354.2788085625,354.2755348125,354.2735506875,354.270678,354.24226043749997,354.22585449999997,354.22125800000003,354.223928875,354.2477086875,354.259500375,354.2606223125,354.26760587499996,354.23038487499997,354.19951649999996,354.16458137499995,354.136841625,354.13735225,354.1366244375,354.1378834375,354.105222625,354.11355637500003,354.0916634375,354.07781331250004,354.083821875,354.0804865625,354.09384387499995,354.08097937499997,354.088666,354.05562525,354.063098125,354.07873900000004,354.04628325,354.0319645,354.0123045,354.006809125,354.0287184375,354.0506751875,354.0461090625,354.0353868125,354.0186656875,354.0086618125,353.9885201875,353.9507200625,353.9080046875,353.860846625,353.82252225,353.80158462500003,353.79327375,353.7961121875,353.80088512500004,353.8068,353.79652625,353.7838821875,353.759461375,353.74565524999997,353.74670943750004,353.7388110625,353.7404626875,353.7329826875,353.714730875,353.7023781875,353.693865375,353.685745,353.68854331250003,353.6861368125,353.6831831875,353.67777887499994,353.673401125,353.67236506250003,353.668733,353.6656415625,353.6641935625,353.662019375,353.6596821875,353.6574184375,353.654171,353.64665218749997,353.64162381250003,353.6400591875,353.639798375,353.6408388125,353.633797,353.62622975,353.6210555,353.606273875,353.590010125,353.581356375,353.5604764375,353.53252331249996,353.544783125,353.53991256250004,353.5429170625,353.5718478125,353.571411,353.57281475,353.56430581250004,353.5648456875
353.844080375,353.85041524999997,353.8763770625,353.887193,353.9066885625,353.931193875,353.9420293125,353.9604045625,353.97836406249996,353.9932025,354.00323675,354.018861625,354.0326926875,354.0450614375,354.0627139375,354.1034486875,354.1186266875,354.134631625,354.1527533125,354.142396,354.15832412500004,354.174688625,354.18883912499996,354.202748375,354.218801,354.2344763125,354.24803299999996,354.2585715,354.26556712499996,354.2739706875,354.28686643749995,354.3036865625,354.324663,354.3441386875,354.361172125,354.37725512500003,354.3927319375,354.41049218750004,354.4273455625,354.443047125,354.45643262500005,354.471055,354.48748950000004,354.5044148125,354.51554899999996,354.5248485625,354.532884625,354.54693499999996,354.5674359375,354.5850150625,354.6050075625,354.621561875,354.63572993749995,354.650645125,354.66500606249997,354.6773509375,354.69210475,354.7042830625,354.7082930625,354.713929375,354.7163445625,354.694673125,354.68721168749994,354.6105146875,354.54687075000004,354.5521395,354.5532499375,354.616268375,354.66101068750004,354.65429231250005,354.6349599375,354.6194965625,354.60176731250004,354.5859835,354.5732116875,354.55433368750005,354.5399219375,354.525900125,354.508991875,354.491137375,354.472357375,354.452470375,354.43551237500003,354.4199863125,354.40352643750003,354.38756975,354.37137562500004,354.35865456249996,354.34534056250004,354.3324945,354.32284743749995,354.313339875,354.306261125,354.30179475,354.29565387499997,354.28326943749994,354.2804455625,354.2771161875,354.27430818749997,354.279996,354.26172249999996,354.25637275,354.25273006249995,354.2457364375,354.259774,354.26056475,354.26075575,354.2679856875,354.23218199999997,354.2041885625,354.1713079375,354.1529150625,354.1401495625,354.1404358125,354.14193275,354.1013193125,354.131472625,354.1152098125,354.1004341875,354.1160655625,354.094702,354.09903318749997,354.0985941875,354.107918625,354.0843154375,354.091330625,354.0944021875,354.060311875,354.04550937500005,354.0331141875,354.0272845625,354.03812800000003,354.05947425,354.04865625,354.0378505625,354.02121212500003,354.0100903125,353.983892375,353.935659,353.89360462499997,353.8481834375,353.816014,353.8055238125,353.8081160625,353.80985887500003,353.81414925,353.8197736875,353.8009120625,353.789601875,353.76201137500004,353.74907437499996,353.74802725,353.73010012500004,353.7358023125,353.7288540625,353.71080574999996,353.70874275,353.700680625,353.6924074375,353.6959040625,353.6933629375,353.690973125,353.68683775,353.6834285625,353.66932499999996,353.66272468750003,353.658756,353.65532137499997,353.6654988125,353.666720375,353.6593750625,353.6569735625,353.65061175,353.64434812499996,353.64676975,353.646405625,353.6472765,353.63947681250005,353.64050125000006,353.63582800000006,353.62411099999997,353.60798856250005,353.5905645625,353.5688855625,353.5370781875,353.549981875,353.545429375,353.548998,353.57746131249996,353.5766991875,353.57939731249996,353.5522735625,353.540487125
353.83315568750004,353.8405053125,353.87439762500003,353.885250375,353.9045246875,353.92216862500004,353.932128625,353.9493143125,353.966945625,353.98563618749995,353.995839,354.04750318749996,354.0570765,354.07034518750004,354.08659900000004,354.0916034375,354.1109461875,354.1259228125,354.14457100000004,354.13297375,354.1487541875,354.1651741875,354.1786713125,354.192546,354.2079625,354.2235695625,354.23845300000005,354.2499019375,354.2576405,354.2650876875,354.27484162499997,354.28966575,354.30761287499996,354.32806875,354.3472486875,354.363497875,354.3802561875,354.3961386875,354.41184250000003,354.426648,354.438046125,354.45266575,354.4683715,354.4872955625,354.504469375,354.513544625,354.5210599375,354.5359815,354.5526544375,354.572511,354.5941476875,354.6094566875,354.6234370625,354.636603,354.6509084375,354.6634291875,354.6771414375,354.69284225,354.6995970625,354.70620937499996,354.71362675,354.7123024375,354.71265324999996,354.6562169375,354.610151,354.60289875,354.59612837500003,354.6395879375,354.66639256250005,354.65255812500004,354.6331945625,354.6179110625,354.5994340625,354.5830640625,354.57048725,354.55175968749995,354.5366809375,354.52125225,354.5045579375,354.48752425,354.4696520625,354.450635875,354.43356968750004,354.41832393749996,354.4035245,354.38928224999995,354.37344793750003,354.3599270625,354.3477931875,354.33506875,354.325440125,354.3161056875,354.3071186875,354.302615,354.296712125,354.2785381875,354.2750400625,354.27174318749996,354.268887625,354.280957875,354.273083375,354.26861693750004,354.2573900625,354.25098025,354.25506762500004,354.2542933125,354.262931125,354.26913443750004,354.234928375,354.2095778125,354.1852636875,354.1769405,354.1642764375,354.15390375,354.147086875,354.097990625,354.1272648125,354.1297359375,354.1144608125,354.1297909375,354.10766931250004,354.10315775,354.1145678125,354.1238474375,354.11220531249995,354.1178698125,354.108816875,354.074442125,354.05739162500004,354.044374,354.03835112499996,354.04716099999996,354.05930656249996,354.048894625,354.0390510625,354.0177410625,354.0062270625,353.9717415,353.9199675,353.8956884375,353.8505175625,353.82703481249996,353.83024774999996,353.8221046875,353.824197125,353.8279045625,353.8236843125,353.804896375,353.7952568125,353.76567412500003,353.75266174999996,353.75141706249997,353.72942881250003,353.7381791875,353.73105018750005,353.71488124999996,353.718669875,353.711581875,353.7037725,353.70693812499997,353.7021716875,353.69995474999996,353.6966739375,353.69229375000003,353.6796925,353.673988375,353.669998875,353.667538,353.67459499999995,353.67436825000004,353.6678844375,353.66486375,353.6600161875,353.6548524375,353.6559968125,353.6472603125,353.647516,353.6467188125,353.6479785,353.65241306250005,353.64156225,353.62641612500005,353.617504875,353.6031871875,353.5786285625,353.5746156875,353.55078050000003,353.54564206250006,353.5600101875,353.56589893750004,353.5633713125,353.536525,353.53077393750004
353.82506550000005,353.8381391875,353.88040643749997,353.883973875,353.89519737499995,353.91379775,353.92257531250004,353.94162700000004,353.95866931250004,353.9758441875,353.9905303125,354.04570750000005,354.05600956250004,354.0693886875,354.0771240625,354.08111637499997,354.09939287500004,354.113599125,354.1343676875,354.1228,354.1377989375,354.15398425,354.16798937500005,354.1817296875,354.1957160625,354.2113495625,354.22746525,354.240230375,354.2494900625,354.257016875,354.264788125,354.27723918749996,354.2929108125,354.31150475000004,354.33079050000003,354.34611674999996,354.36326599999995,354.3790975625,354.3949214375,354.4107423125,354.4228593125,354.4356483125,354.449245375,354.4672854375,354.4853460625,354.49871893750003,354.5069426875,354.5204406875,354.5373511875,354.5558319375,354.5789789375,354.5958729375,354.6096715,354.62294093749995,354.63620943750004,354.64950050000004,354.6623276875,354.679588125,354.68993881250003,354.6975143125,354.7067580625,354.70678475,354.70687999999996,354.66836025,354.6233184375,354.616722125,354.60867331250006,354.63439574999995,354.661082125,354.64627256250003,354.62766587500005,354.614021,354.5956325625,354.5795375,354.56730043749997,354.54877749999997,354.53383875,354.517538625,354.501476,354.48462812500003,354.46685206250004,354.447807875,354.43086143749997,354.416478375,354.40273318749996,354.38960087500004,354.37408443749996,354.3600496875,354.3477355625,354.3350545625,354.32568375000005,354.31691756249995,354.307936,354.3041596875,354.2988698125,354.2890168125,354.2852003125,354.2819218125,354.2783691875,354.2817830625,354.28326718750003,354.27970700000003,354.2690509375,354.2629943125,354.25777943750006,354.25554775,354.26349749999997,354.26900950000004,354.24486275000004,354.2275515625,354.2130978125,354.20493162500003,354.19092175000003,354.1722006875,354.1583071875,354.1195766875,354.140739375,354.1529375,354.1354378125,354.13335325,354.11953600000004,354.106106875,354.12888737500003,354.1456329375,354.13564062499995,354.14182474999996,354.1307583125,354.1069745,354.0889526875,354.073950375,354.05852274999995,354.05709956249996,354.0609703125,354.0523988125,354.0437638125,354.0231965,354.0105206875,353.9796755625,353.9279033125,353.90277225,353.857759,353.841865,353.85460187499996,353.8468724375,353.84959849999996,353.8417878125,353.82735225,353.81735987499997,353.808930875,353.78096412499997,353.7684778125,353.75864706249996,353.735590125,353.74338075000003,353.7360621875,353.72144149999997,353.7263040625,353.719578875,353.7123996875,353.7151669375,353.7238285625,353.72276275,353.721458125,353.71746225000004,353.6917931875,353.68611868749997,353.68118425,353.678835,353.68497137500003,353.68379325,353.6777765,353.674135375,353.67099862500004,353.66543487499996,353.6663175,353.656641125,353.655158875,353.6553369375,353.6549786875,353.66102375,353.6517630625,353.63584318750003,353.61917843749995,353.60191050000003,353.5832841875,353.57980062499996,353.56544625000004,353.57106887500004,353.5788809375,353.570944375,353.560751,353.51205400000003,353.50538475
